ply
format ascii 1.0
comment VCGLIB generated
element vertex 1847
property float x
property float y
property float z
element face 0
property list uchar int vertex_indices
end_header
0.165487 1.21345 -0.0546365
0.150062 1.33599 -0.010589
0.155056 1.29661 0.00982122
0.139761 1.41787 0.0231626
0.146059 1.3681 0.0355156
0.163759 1.22808 0.0543123
0.11673 1.3264 -0.112668
0.15079 1.23043 -0.0852808
0.143298 1.28959 -0.088674
-0.157586 2.04745 -0.225158
-0.145862 2.07018 -0.225377
-0.149696 2.13088 -0.225745
-0.141851 2.17335 -0.226067
-0.136034 2.14375 -0.225912
-0.108774 2.10802 -0.225851
-0.322119 2.24193 -0.140934
-0.300987 2.18485 -0.15134
-0.281857 2.00762 -0.137361
-0.271968 2.04893 -0.154905
-0.297544 2.11539 -0.141823
-0.259223 2.04067 -0.166055
-0.917574 6.04334 0.208555
-0.999041 5.98074 0.242434
-1.01243 6.11686 0.225421
-0.959216 5.9784 0.204103
-0.989984 6.04498 0.354147
-0.991525 5.99368 0.33476
-1.00668 6.04117 0.337023
-0.948699 6.05763 0.362844
-0.902081 6.12773 0.327257
-0.888294 6.09708 0.322495
-0.892647 6.00552 0.351757
-0.872935 6.00304 0.229773
-0.925531 6.19579 0.258903
-1.01213 6.27453 0.229837
-1.10448 6.29131 0.299466
-1.10448 6.29131 0.299466
-1.10137 6.41012 0.379733
-1.07669 6.27923 0.355256
-1.03265 6.24016 0.371761
-0.970716 6.33602 0.307619
-0.964876 6.32017 0.310443
-0.942373 6.26006 0.269531
-1.32174 7.17736 0.321924
-1.31546 7.14581 0.3183
-1.29626 7.10148 0.312891
-1.30709 7.14838 0.318322
-1.34158 7.13652 0.331247
-1.37175 7.17499 0.363268
-1.32753 7.16551 0.428177
-1.33766 7.17917 0.429297
-1.23304 7.04532 0.399602
-1.24651 7.07434 0.405971
-1.23759 7.06742 0.328147
-1.26059 7.07878 0.3114
-1.26135 7.09491 0.31733
-1.25654 7.07965 0.315523
-1.35714 7.30035 0.336411
-1.39008 7.37378 0.345539
-1.3789 7.32709 0.340041
-1.45156 7.46948 0.381742
-1.38861 7.32361 0.345002
-1.39995 7.33613 0.354055
-1.42377 7.35835 0.397678
-1.38821 7.31525 0.43271
-1.37943 7.28445 0.429998
-1.33696 7.29677 0.437344
-1.35624 7.32442 0.43964
-1.34607 7.38609 0.35867
-1.34973 7.38533 0.354943
-1.33573 7.372 0.362429
-1.33037 7.32438 0.347617
-1.62475 8.12817 0.42961
-1.64637 8.22238 0.439404
-1.66802 8.21469 0.4431
-1.63119 8.09151 0.4339
-1.67169 8.17711 0.469148
-1.68462 8.27204 0.50522
-1.62542 8.15611 0.498962
-1.59731 8.13243 0.487569
-1.58825 8.11884 0.482626
-1.63754 8.27267 0.485995
-1.62118 8.22803 0.473563
-1.59351 8.10453 0.430081
-1.70295 8.37245 0.455553
-1.68355 8.3452 0.452398
-1.74355 8.4256 0.470445
-1.75178 8.45686 0.471514
-1.74013 8.39119 0.48709
-1.73526 8.37612 0.482923
-1.7302 8.36036 0.48787
-1.66454 8.33082 0.497731
-1.71545 8.4844 0.49605
-1.8519 8.77307 0.498701
-1.81715 8.66928 0.487949
-1.80013 8.5772 0.496571
-1.77471 8.56419 0.524292
-1.79899 8.69168 0.526579
-1.76126 8.60874 0.511787
-1.76756 8.62611 0.510619
-1.77553 8.62531 0.487382
0.109544 2.28662 -0.0676306
0.103319 2.2258 -0.0758212
0.107764 2.20454 -0.0791411
0.109362 2.14254 -0.0880394
0.141187 2.11714 -0.0938362
0.0970044 2.09294 -0.0942162
0.0346735 2.34762 0.0312246
0.013597 2.22893 0.017029
0.0161771 2.06908 -0.0383354
0.0316736 2.09821 -0.0469321
0.0332745 2.07816 -0.0553708
-0.00603403 2.06026 -0.0152271
0.00130234 2.1597 0.00874822
0.029439 2.27202 0.141371
0.0245289 2.2546 0.119624
-0.0104419 2.07318 0.0686663
0.00813987 2.18048 0.0759776
-0.0114524 2.0384 0.120763
0.00541325 2.13598 0.127051
0.28272 2.00322 -0.00898644
0.292625 2.04822 0.0357017
0.305431 2.13604 0.049155
0.326544 2.24765 0.120944
0.310871 2.15203 0.0867318
0.239176 2.09787 -0.0644406
0.281912 2.15997 -0.0280244
0.272358 2.00752 -0.0361361
0.26309 2.07159 -0.0440501
0.26166 2.06161 -0.0452672
0.283685 2.10798 -0.0265016
0.608594 5.13794 0.59167
0.637462 5.13403 0.589145
0.623604 5.0955 0.772436
0.633442 5.12658 0.778346
0.678423 5.07372 0.754464
0.685764 5.05898 0.740174
0.810754 5.9519 0.766758
0.757313 5.91385 0.783459
0.801564 6.07609 0.893712
0.797964 5.98607 0.908516
0.77636 5.90615 0.904121
0.908474 6.00227 0.905186
0.913754 6.03365 0.915205
0.916279 6.03334 0.912071
0.880242 5.94167 0.907084
0.888681 5.88532 0.807519
0.899932 5.91233 0.831485
0.930986 6.00049 0.863749
0.932309 6.28867 0.825414
0.921745 6.29235 0.826796
0.87907 6.18601 0.807113
0.916168 6.3744 0.882159
0.916168 6.3744 0.882159
0.874742 6.26823 0.861131
0.935813 6.22909 0.956403
0.940641 6.26155 0.961518
0.893159 6.14151 0.944742
1.24151 7.06234 1.05004
1.23484 7.03314 1.03858
1.19144 6.99585 1.04356
1.2452 7.09069 1.06779
1.23274 7.04976 1.04505
1.20512 6.99841 1.12221
1.23304 6.93451 1.11812
1.24732 6.88832 1.08044
1.25301 6.88086 1.04288
1.26954 6.92667 1.04464
1.3559 7.30182 1.14947
1.34366 7.2752 1.13815
1.33262 7.23245 1.12014
1.31793 7.20677 1.10916
1.3228 7.17358 1.09544
1.25342 7.146 1.15192
1.25359 7.15727 1.1223
1.25986 7.1687 1.13269
1.25986 7.1687 1.13269
1.2788 7.20957 1.14657
1.28313 7.12123 1.18259
1.36244 7.14814 1.16366
1.36993 7.166 1.15592
1.36996 7.16788 1.15099
1.34735 7.12032 1.11159
1.34241 7.12605 1.10231
1.38214 7.37223 1.17892
1.39978 7.43388 1.2125
1.36929 7.39421 1.2435
1.35511 7.36377 1.23172
1.37692 7.38439 1.26047
1.4151 7.36325 1.27166
1.38773 7.31923 1.25611
1.47327 7.43643 1.2832
1.42813 7.34282 1.2559
1.46479 7.39914 1.22834
1.44732 7.41607 1.2042
1.47093 7.61552 1.29787
1.46822 7.61138 1.31249
1.48132 7.63486 1.33598
1.51761 7.66291 1.37108
1.49535 7.58573 1.35015
1.54902 7.64924 1.37078
1.52298 7.60876 1.35753
1.55382 7.61112 1.31398
1.55383 7.6054 1.32963
1.60115 7.73072 1.343
1.62471 7.91387 1.38953
1.62589 7.95153 1.42213
1.61899 7.93096 1.4421
1.60144 7.89708 1.41915
1.63563 7.90288 1.45411
1.60969 7.85362 1.43821
1.64 7.83128 1.41699
1.63061 7.83152 1.42794
1.64706 7.87303 1.38371
1.68688 8.03576 1.43596
1.67242 8.05078 1.45842
1.72417 8.15735 1.51442
1.66568 8.03138 1.47493
1.69409 8.07661 1.49912
1.71269 8.00961 1.47803
1.72053 8.03516 1.48973
1.70331 7.99699 1.47855
1.74031 8.06341 1.47882
1.85204 8.40688 1.57636
1.80037 8.32329 1.55743
1.78638 8.29344 1.5527
1.76662 8.2483 1.54519
1.86496 8.38879 1.61161
1.8098 8.2298 1.54372
1.80382 8.21617 1.53643
1.84342 8.34254 1.55594
-0.649985 4.8225 -0.642835
-0.607296 4.82334 -0.610744
-0.56459 4.84982 -0.619071
-0.701332 5.10649 -0.689604
-0.669116 5.05177 -0.6648
-0.629654 5.12777 -0.68595
-0.647944 5.12325 -0.682633
-0.58096 5.13231 -0.730503
-0.582391 5.15082 -0.805167
-0.55175 5.06235 -0.773329
-0.668939 5.03076 -0.846608
-0.678465 5.16074 -0.874351
-0.623215 5.04205 -0.854899
-0.623215 5.04205 -0.854899
-0.732477 5.03318 -0.749136
-0.725213 5.00003 -0.752143
-0.747826 5.07383 -0.781526
-0.841327 5.89371 -0.858825
-0.860385 5.85729 -0.847682
-0.832662 6.00717 -0.977707
-0.885703 6.01685 -1.02996
-0.837753 5.88417 -0.998192
-0.851778 5.9123 -1.00774
-0.935991 5.83417 -0.95229
-0.993242 6.15953 -0.93505
-0.986272 6.07872 -0.926643
-0.989923 6.09397 -0.92999
-0.915806 6.10212 -0.900572
-0.961371 6.23691 -0.93036
-0.879068 6.10824 -0.917126
-0.864696 6.13157 -0.98683
-0.911796 6.17408 -1.0468
-0.96194 6.12778 -1.04647
-0.980915 6.0642 -1.00601
-0.989543 6.17012 -1.0495
-1.0038 6.1158 -0.969722
-1.16293 7.02215 -1.17063
-1.16668 7.06741 -1.19056
-1.13309 7.03401 -1.21369
-1.12413 7.00314 -1.20873
-1.16591 6.90925 -1.24119
-1.21576 6.93732 -1.21758
-1.19129 6.89193 -1.21836
-1.19779 6.87857 -1.19985
-1.20088 6.88771 -1.16973
-1.19985 6.89151 -1.15897
-1.20779 6.92169 -1.16684
-1.20011 6.89056 -1.16166
-1.28492 7.30177 -1.27797
-1.24943 7.17023 -1.22979
-1.24149 7.10733 -1.21407
-1.21278 7.18093 -1.23124
-1.1893 7.18037 -1.2528
-1.25164 7.32588 -1.28874
-1.16804 7.12769 -1.26933
-1.27579 7.15622 -1.29565
-1.28588 7.19927 -1.26601
-1.27488 7.14931 -1.26633
-1.37576 7.60975 -1.39173
-1.38239 7.77212 -1.46821
-1.40563 7.61638 -1.45722
-1.51317 8.00136 -1.54731
-1.4534 7.94708 -1.51417
-1.44658 7.87462 -1.48703
-1.45642 7.91669 -1.50226
-1.42768 7.90559 -1.51183
-1.42504 7.87883 -1.49417
-1.42642 7.91174 -1.54484
-1.44434 7.89989 -1.56409
-1.52439 8.02085 -1.5791
-1.51298 8.11042 -1.57136
-1.53562 8.24908 -1.63656
-1.48972 8.11134 -1.5902
-1.54389 8.22174 -1.66116
-1.53516 8.19378 -1.6527
-1.48484 8.07404 -1.60655
-1.53879 8.08186 -1.58336
-1.54312 8.09437 -1.59206
-1.53619 8.06281 -1.59288
-1.61895 8.46307 -1.69605
-1.58129 8.33722 -1.65167
-1.57012 8.30619 -1.6409
-1.56405 8.32225 -1.65547
-1.60645 8.45841 -1.72175
-1.62016 8.45021 -1.73389
-1.6004 8.38669 -1.7144
-1.6028 8.33509 -1.69581
-1.63087 8.40207 -1.69707
-1.5994 8.29019 -1.66226
1.06718 6.04674 -0.252136
1.05024 6.1246 -0.21155
1.03534 6.10066 -0.156878
1.13723 6.01377 -0.122
1.12726 5.93206 -0.130501
1.15373 5.9858 -0.18032
1.13601 5.94448 -0.145636
1.16525 6.0139 -0.198197
1.12508 5.95936 -0.221492
1.14343 5.987 -0.214114
1.16064 6.3862 -0.240238
1.15128 6.35577 -0.240534
1.12181 6.30036 -0.22437
1.16756 6.18942 -0.117585
1.17578 6.22007 -0.120945
1.21031 6.17043 -0.149952
1.23774 6.22575 -0.176895
1.21805 6.2278 -0.244376
1.18454 6.17182 -0.254977
1.20663 6.23104 -0.258495
1.19272 6.15312 -0.237155
1.43257 7.03558 -0.222795
1.49569 7.1471 -0.219546
1.4864 7.10033 -0.21444
1.51542 7.03766 -0.224549
1.53968 7.05856 -0.266982
1.52435 7.07773 -0.308648
1.52066 7.06252 -0.305644
1.48109 7.07663 -0.317525
1.54128 7.34129 -0.297829
1.48931 7.21085 -0.288336
1.51969 7.25393 -0.244758
1.54824 7.3427 -0.262415
1.56369 7.32267 -0.240477
1.53113 7.21761 -0.226916
1.5811 7.17868 -0.258892
1.56679 7.17948 -0.309377
1.5419 7.22089 -0.326112
1.55233 7.23361 -0.326812
1.58265 7.44438 -0.311936
1.60823 7.5091 -0.328292
1.60014 7.48008 -0.282955
1.6531 7.53915 -0.272921
1.73834 7.63743 -0.310832
1.70788 7.55434 -0.295737
1.64244 7.42957 -0.256222
1.67739 7.44835 -0.306713
1.7003 7.54878 -0.346702
1.65391 7.5263 -0.356872
1.8234 7.88044 -0.393195
1.72868 7.7234 -0.385658
1.71358 7.69163 -0.37979
1.78167 7.81608 -0.402563
1.8147 8.04962 -0.437364
1.83744 8.08583 -0.398293
1.78823 7.98635 -0.385504
1.80852 7.9995 -0.372421
1.87271 8.10689 -0.403109
1.84023 8.05335 -0.387805
1.83113 7.94165 -0.367836
1.86682 8.05876 -0.398555
1.8787 8.10352 -0.408681
1.85326 7.97977 -0.390902
1.84418 7.94944 -0.388188
1.85781 7.99474 -0.39312
1.83495 7.94569 -0.417422
1.87605 8.06188 -0.441431
1.82676 7.97812 -0.435398
1.82237 7.94747 -0.428067
1.89712 8.26129 -0.498481
1.89304 8.24637 -0.495475
1.90333 8.31375 -0.486953
1.90333 8.31493 -0.482622
1.94619 8.40058 -0.492906
1.93577 8.3251 -0.468647
1.8983 8.1945 -0.428375
1.96245 8.37974 -0.486724
1.91706 8.18347 -0.44583
1.93023 8.25102 -0.495708
1.9367 8.26549 -0.497494
1.89613 8.21205 -0.492039
1.9811 8.50378 -0.562087
1.94549 8.42586 -0.534537
1.95875 8.45761 -0.54464
1.95628 8.4601 -0.538414
1.9447 8.43083 -0.517542
2.00536 8.54225 -0.533456
1.97629 8.4613 -0.509827
1.98552 8.4393 -0.508007
2.03553 8.56547 -0.554017
2.03552 8.56417 -0.558729
1.99709 8.46245 -0.551189
2.00144 8.47902 -0.556427
2.01943 8.52857 -0.566731
1.96202 8.41733 -0.545461
1.98813 8.4821 -0.561626
-0.590668 4.84775 -0.678712
-0.480317 4.81319 -0.635512
-0.444354 4.7909 -0.78138
-0.608702 6.10438 -1.03664
-0.608416 6.0888 -1.03167
-0.618544 6.00501 -1.02531
-0.611622 5.94558 -0.996172
-0.608341 5.9787 -0.999949
-0.551121 6.07952 -1.01065
-0.560987 6.04732 -1.00316
-0.497103 6.03751 -1.04321
-0.487559 5.9295 -1.06399
-0.576958 5.86554 -1.09789
-0.628534 5.92832 -1.05319
-0.624228 5.86158 -1.04816
-0.61705 6.21008 -1.08069
-0.541061 6.24818 -1.07186
-0.551349 6.29601 -1.08065
-0.553515 6.26539 -1.06955
-0.504391 6.19359 -1.0895
-0.507711 6.1124 -1.13619
-0.50233 6.11505 -1.12756
-0.565437 6.13396 -1.17485
-0.543323 6.08821 -1.1576
-0.616735 6.2026 -1.16993
-0.630802 6.18006 -1.1264
-0.633457 6.21434 -1.12547
-0.628186 6.16153 -1.13176
-0.614375 6.99446 -1.2603
-0.62246 7.05677 -1.28574
-0.624103 7.15305 -1.30661
-0.623556 7.12096 -1.29965
-0.62076 7.1217 -1.29504
-0.626408 6.95901 -1.2741
-0.602818 7.12505 -1.26901
-0.587847 7.07732 -1.25748
-0.536102 7.15568 -1.28263
-0.538557 6.96273 -1.25033
-0.525372 7.00766 -1.28052
-0.520805 7.05296 -1.30805
-0.531785 7.04996 -1.32995
-0.564261 6.9648 -1.3418
-0.559257 6.93224 -1.33658
-0.572044 6.98088 -1.34573
-0.594151 6.99797 -1.34341
-0.585893 7.14478 -1.36516
-0.585082 6.96429 -1.34501
-0.589755 6.96474 -1.34225
-0.610452 7.31745 -1.31307
-0.584561 7.31965 -1.29364
-0.594502 7.30318 -1.29382
-0.594062 7.22202 -1.28215
-0.536815 7.31768 -1.30528
-0.551607 7.31894 -1.29653
-0.573428 7.37342 -1.39033
-0.568391 7.22647 -1.37402
-0.603578 7.22816 -1.36325
-0.598642 7.27684 -1.37059
-0.618962 7.2152 -1.33657
-0.61168 7.34394 -1.36474
-0.578664 8.09911 -1.41129
-0.55666 8.21658 -1.42463
-0.531246 8.14528 -1.44354
-0.531186 8.11012 -1.45071
-0.556041 8.12419 -1.47478
-0.561991 8.15768 -1.48038
-0.593848 8.11132 -1.44789
-0.58894 8.1769 -1.46764
-0.586491 8.24385 -1.47771
-0.564532 8.45045 -1.46425
-0.571423 8.45031 -1.46598
-0.547797 8.45007 -1.46518
-0.552467 8.46726 -1.46494
-0.531429 8.49663 -1.49766
-0.532767 8.4137 -1.47958
-0.55467 8.46036 -1.51541
-0.585752 8.38009 -1.48117
-0.584528 8.39649 -1.48599
-0.583467 8.43008 -1.49019
0.536309 6.41347 -0.0947404
0.537958 6.44767 -0.0957211
0.621142 6.54856 -0.0354913
0.623951 6.51457 -0.0335724
0.607273 6.41313 -0.0309789
0.642322 6.41186 -0.0420102
0.674382 6.37516 -0.101634
0.67258 6.46107 -0.0829756
0.58833 7.30917 -0.0609805
0.598311 7.41311 -0.0669018
0.585838 7.27337 -0.0502258
0.634885 7.33511 -0.00832125
0.628743 7.36947 -0.0058555
0.677918 7.24962 -0.0325751
0.691283 7.23506 -0.0649603
0.691384 7.26829 -0.052315
0.676124 7.44654 -0.0936767
0.598102 7.27823 -0.102356
0.624459 7.34703 -0.109842
0.619146 7.2958 -0.11538
0.610579 7.22745 -0.121622
0.607872 7.54436 -0.0157126
0.646342 7.64049 0.0255879
0.639122 7.5046 0.00873544
0.697839 7.67323 0.0164648
0.686636 7.55422 0.00518363
0.677846 7.5369 0.00909838
0.690464 7.5036 -0.00628275
0.700183 7.52182 -0.0171639
0.690361 7.70038 -0.0515103
0.657944 7.72017 -0.0546518
0.649369 7.51684 -0.0874774
0.629498 7.55088 -0.0738624
0.631511 7.55097 -0.0754099
0.629498 7.55088 -0.0738624
0.676589 8.39813 0.0736965
0.694826 8.59737 0.115549
0.708195 8.56052 0.128653
0.730466 8.49153 0.119966
0.735668 8.50848 0.118545
0.753377 8.59527 0.099441
0.750042 8.52807 0.0906955
0.742935 8.39427 0.0686397
0.733279 8.44744 0.0595418
0.705436 8.45022 0.0524441
0.703115 8.69962 0.115579
0.707699 8.66292 0.132325
0.7156 8.79818 0.142738
0.765111 8.83021 0.132607
0.764434 8.81357 0.128958
0.75272 8.74892 0.104455
0.750189 8.76651 0.102282
0.73894 8.83503 0.109023
0.73894 8.83503 0.109023
0.736127 8.66674 0.0857953
-0.801002 6.1676 0.345336
-0.791663 6.05078 0.331494
-0.789428 6.03487 0.322332
-0.917924 6.11964 0.251284
-0.907839 6.01987 0.235856
-0.923938 6.03455 0.249526
-0.913367 6.00226 0.238834
-0.937127 6.07951 0.300021
-0.86109 6.12692 0.376695
-0.866441 6.02581 0.367625
-0.883764 5.99141 0.36258
-0.871388 7.15916 0.466831
-0.896 7.26624 0.454077
-0.941351 7.29998 0.449574
-0.923204 7.20139 0.424578
-0.938633 7.23404 0.43173
-0.964427 7.12953 0.422661
-0.980312 7.22198 0.473269
-0.97912 7.15483 0.46162
-0.981107 7.23781 0.480295
-0.964957 7.17841 0.512617
-0.982467 7.24787 0.508909
-0.901456 7.11265 0.510095
-0.891582 7.45831 0.531073
-0.923441 7.59447 0.543434
-0.90607 7.49404 0.526075
-0.910111 7.44724 0.50166
-0.982547 7.45622 0.515818
-0.993652 7.58371 0.561327
-0.970459 7.40703 0.571598
-0.987924 7.44382 0.560778
-0.963306 7.47093 0.596383
-0.913104 7.44306 0.581781
-0.930472 7.53877 0.614569
-0.928464 7.53928 0.613057
-1.02824 8.34073 0.794115
-1.00988 8.26475 0.766841
-1.01046 8.26318 0.771821
-1.02152 8.26752 0.750133
-1.04312 8.40413 0.806931
-1.05746 8.22954 0.737381
-1.07639 8.37151 0.775781
-1.08718 8.3134 0.787507
-1.07819 8.26775 0.771257
-1.06938 8.22156 0.756667
-1.07892 8.3079 0.811171
-1.07478 8.2922 0.808147
-1.06377 8.37207 0.840471
-1.06231 8.32436 0.826008
-1.03213 8.2008 0.791656
-1.04829 8.4117 0.836224
-1.04165 8.36368 0.825579
-1.0096 8.22449 0.78483
-1.08316 8.54309 0.842519
-1.07836 8.52768 0.838812
-1.14016 8.66215 0.872399
-1.13566 8.56131 0.859796
-1.13208 8.54689 0.85203
-1.12183 8.50222 0.83292
-1.14606 8.64759 0.915159
-1.12749 8.55509 0.885807
-1.09956 8.49441 0.87426
-1.09105 8.58032 0.887518
-1.08944 8.56398 0.884534
-1.07528 8.46792 0.863376
-1.07415 8.46842 0.862562
-1.07944 8.5343 0.873682
0.743345 5.90332 0.792328
0.76842 5.99561 0.829882
0.764973 5.9326 0.809478
0.779105 6.05781 0.852812
0.779449 5.93098 0.814532
0.69879 5.93301 0.810917
0.703185 5.96512 0.818875
0.682205 5.96269 0.828298
0.662218 6.06094 0.907189
0.656321 5.96346 0.887021
0.666864 5.93906 0.911677
0.719284 6.00698 0.973005
0.732511 5.89325 0.948642
0.710441 5.86365 0.932657
0.805937 5.91001 0.886774
0.792359 5.98016 0.943174
0.794821 6.03008 0.949138
0.787048 6.99406 1.14313
0.779687 7.19995 1.1967
0.712937 7.02748 1.14675
0.72041 6.99697 1.13406
0.743634 7.12532 1.16098
0.740875 7.0622 1.14355
0.693518 7.14311 1.21986
0.694015 6.97292 1.16008
0.729858 7.08147 1.25666
0.79493 6.97832 1.1997
0.792585 7.00856 1.21288
0.787252 7.11647 1.25143
0.765366 7.24853 1.20584
0.782068 7.34038 1.24114
0.722524 7.31079 1.22885
0.72966 7.32725 1.2308
0.70316 7.426 1.30238
0.699272 7.26514 1.26834
0.701316 7.29585 1.27934
0.717869 7.22533 1.28828
0.718109 7.24096 1.29258
0.77356 7.30291 1.30988
0.778144 7.24105 1.29022
0.79368 7.26388 1.26875
0.78498 7.44469 1.34435
0.803998 8.138 1.54837
0.807113 8.06255 1.51594
0.782329 8.08134 1.51917
0.750182 8.02778 1.52593
0.768737 8.14821 1.57354
0.758057 8.04837 1.51802
0.771347 8.18591 1.60835
0.771491 8.04264 1.56866
0.80754 8.11343 1.60142
0.817125 8.03181 1.54298
0.841867 8.35038 1.66433
0.835336 8.45734 1.70795
0.825747 8.32635 1.64272
0.828455 8.32565 1.64353
0.795969 8.29841 1.63256
0.797866 8.28442 1.6234
0.817828 8.42452 1.74252
0.815351 8.2598 1.67042
0.848298 8.36812 1.70134
0.852313 8.38535 1.70226
0.875034 8.65885 1.82111
0.871406 8.64444 1.80915
0.861831 8.50828 1.7515
0.860974 8.64744 1.8052
0.85549 8.51346 1.74235
0.841457 8.64746 1.80994
0.838129 8.54979 1.75684
0.82226 8.52915 1.76078
0.823096 8.53004 1.75874
0.83128 8.58114 1.779
0.830626 8.53342 1.79268
0.833943 8.53255 1.79365
0.853501 8.56357 1.81032
0.863266 8.5327 1.78611
1.05382 6.67631 0.945517
1.06985 6.73873 0.990593
1.09753 6.73086 1.0212
1.08201 6.68473 1.02074
1.12604 6.70613 1.02584
1.1307 6.63767 1.01789
1.12953 6.65478 1.01988
1.15103 6.63231 0.985249
1.15988 6.68022 0.992848
1.15535 6.68139 1.00356
1.1566 6.64776 0.961075
1.1489 6.70056 0.926145
1.15079 7.0163 0.957055
1.14072 6.98621 0.959336
1.14445 6.98498 0.995193
1.14993 6.95051 1.01437
1.23166 7.04295 1.0156
1.21402 6.90041 0.946061
1.24569 6.99009 0.968813
1.23018 6.92868 0.968541
1.24662 6.98982 0.971296
1.28121 7.33447 0.931067
1.19186 7.16991 0.968147
1.19186 7.16991 0.968147
1.26835 7.38886 1.00668
1.26615 7.28635 1.01899
1.24455 7.25802 1.01362
1.31969 7.34026 1.00904
1.27821 7.14593 0.994155
1.47754 8.0817 0.962887
1.46695 7.98271 0.951885
1.47372 8.0318 0.956785
1.45718 8.01937 0.960958
1.44625 7.98841 0.960294
1.45441 8.02008 0.964576
1.45978 8.03561 0.9637
1.45819 8.05243 0.993459
1.4993 8.19413 0.990916
1.43834 7.98999 0.990331
1.48254 8.09616 1.0116
1.50244 8.07334 1.01629
1.49653 8.07497 1.01869
1.52766 8.08368 0.995754
1.51993 8.06947 0.969559
1.50627 8.00506 0.976263
1.51424 8.03687 0.975977
1.52953 8.18624 0.960865
1.50707 8.10751 0.957239
1.48735 8.0109 0.956182
1.49025 8.01005 0.957501
1.52586 8.27191 0.984547
1.53021 8.27093 0.974347
1.57224 8.42871 0.998475
1.57224 8.42871 0.998475
1.51853 8.25676 0.992354
1.53179 8.2353 1.01612
1.56542 8.25982 1.01352
1.59164 8.38853 1.01838
1.56452 8.29537 0.967711
-1.03429 6.66312 -1.053
-1.02272 6.615 -1.04767
-1.00612 6.6137 -1.09677
-1.03825 6.7444 -1.08467
-1.00741 6.61606 -1.07048
-1.00726 6.6158 -1.0734
-1.00741 6.61606 -1.07048
-1.02697 6.6968 -1.07351
-1.01926 6.66471 -1.06996
-1.05338 6.59873 -1.14249
-1.11126 6.63852 -1.12922
-1.11336 6.57386 -1.08942
-1.11703 6.59081 -1.08242
-1.13898 7.02565 -1.08025
-1.13763 6.95994 -1.07293
-1.10366 6.99803 -1.1004
-1.09838 6.90182 -1.07342
-1.07925 6.85578 -1.07551
-1.09193 6.96669 -1.1059
-1.10482 6.9925 -1.15217
-1.10336 7.00996 -1.14785
-1.08434 6.93148 -1.14038
-1.13802 6.94979 -1.17174
-1.12814 6.91887 -1.16905
-1.11405 6.90547 -1.16744
-1.1851 6.92848 -1.11493
-1.17872 6.89686 -1.11147
-1.16545 6.83265 -1.11521
-1.16851 6.84822 -1.11961
-1.18407 7.03148 -1.08902
-1.17504 7.15182 -1.09598
-1.1447 7.18795 -1.14939
-1.15367 7.14813 -1.17877
-1.18228 7.22752 -1.19384
-1.20346 7.13674 -1.18308
-1.23373 7.16958 -1.13746
-1.21756 7.17596 -1.10946
-1.33475 7.96859 -1.1995
-1.34382 8.04858 -1.23187
-1.34366 8.04831 -1.23516
-1.4211 8.1495 -1.25348
-1.37044 7.95642 -1.25103
-1.40583 8.05262 -1.23332
-1.40714 8.25706 -1.22133
-1.39791 8.28986 -1.25471
-1.39272 8.2565 -1.2601
-1.40993 8.21804 -1.27136
-1.4507 8.29566 -1.25891
-1.44166 8.24684 -1.25637
-1.42829 8.21845 -1.22538
-1.45948 8.34592 -1.24602
-1.45877 8.36326 -1.24354
-0.625307 6.76476 -1.25221
-0.584049 6.668 -1.18292
-0.554386 6.76042 -1.2308
-0.574484 6.87041 -1.27281
-0.536248 6.68117 -1.28885
-0.562922 6.80038 -1.35109
-0.642923 6.87906 -1.3274
-0.637682 6.78484 -1.28939
-0.631809 6.70404 -1.26326
-0.636892 7.10525 -1.39197
-0.62907 7.01668 -1.34704
-0.568181 6.98911 -1.33688
-0.583761 7.0216 -1.34292
-0.568211 6.95942 -1.32187
-0.58605 6.96262 -1.31161
-0.614156 6.87661 -1.38046
-0.626098 6.89387 -1.38045
-0.648292 7.24274 -1.46003
-0.650383 7.19192 -1.44607
-0.631145 7.2011 -1.42791
-0.584505 7.18645 -1.42557
-0.589689 7.20291 -1.43039
-0.597471 7.17324 -1.41032
-0.564504 7.17441 -1.45666
-0.570892 7.22524 -1.46927
-0.580799 7.32253 -1.50503
-0.566365 7.14983 -1.42575
-0.575896 7.22765 -1.50672
-0.581052 7.34227 -1.54698
-0.564933 7.13413 -1.4623
-0.640718 7.23416 -1.52502
-0.653639 7.16413 -1.46614
-0.683291 7.77411 -1.70301
-0.680336 7.67632 -1.66482
-0.674683 7.86146 -1.72273
-0.638629 7.7368 -1.66378
-0.63366 7.75166 -1.67441
-0.62432 7.73429 -1.67203
-0.62432 7.73429 -1.67203
-0.617769 7.70063 -1.70759
-0.618516 7.73433 -1.7178
-0.66606 7.77384 -1.75145
-0.661724 7.70901 -1.72544
-0.664036 7.83756 -1.78112
-0.704837 8.13014 -1.8611
-0.653937 7.94398 -1.7559
-0.645505 8.08902 -1.84967
-0.652818 8.08128 -1.8669
-0.642147 7.92282 -1.80815
-0.639223 7.93999 -1.80758
-0.673691 8.07618 -1.87554
-0.675848 8.06141 -1.87055
-0.657928 7.93432 -1.81793
-0.685337 7.93545 -1.81064
-0.693365 7.94043 -1.79745
-0.713812 8.34345 -1.94855
-0.685158 8.21001 -1.8731
-0.684041 8.16758 -1.85492
-0.667833 8.32943 -1.94993
-0.660208 8.23275 -1.90285
-0.658888 8.23079 -1.90774
-0.672473 8.3089 -1.95832
-0.672473 8.3089 -1.95832
-0.673365 8.29318 -1.95583
-0.704155 8.48858 -1.99547
-0.699745 8.47312 -1.98777
-0.697031 8.39274 -1.95332
-0.68871 8.45616 -1.98476
-0.69301 8.44113 -1.97456
-0.683177 8.49849 -2.02075
-0.684872 8.44415 -2.01418
-0.714817 8.61886 -2.09088
-0.695319 8.47436 -2.03099
-0.711354 8.44185 -2.01518
-0.720261 8.47722 -2.01993
0.588016 7.38526 -0.134526
0.582512 7.31501 -0.138884
0.584486 7.283 -0.115001
0.580234 7.23022 -0.118955
0.640995 7.2501 -0.0862176
0.684145 7.34792 -0.132477
0.606351 7.42842 -0.204724
0.641647 8.43287 -0.271363
0.65103 8.60016 -0.30118
0.637197 8.39791 -0.279657
0.659456 8.48473 -0.259217
0.656603 8.63569 -0.286635
0.683303 8.41654 -0.247622
0.67687 8.61932 -0.271159
0.669793 8.48487 -0.253493
0.700353 8.63444 -0.278523
0.693897 8.43242 -0.253991
0.707242 8.51257 -0.295966
0.705196 8.4948 -0.302771
0.684746 8.46008 -0.315911
0.665648 8.59667 -0.326285
0.659355 8.46147 -0.313978
0.659137 8.71801 -0.314395
0.692692 8.70259 -0.284061
0.71336 8.74815 -0.326902
0.710599 8.6803 -0.323167
0.68776 8.67991 -0.337049
0.686969 8.71386 -0.339637
0.66998 8.86902 -0.33575
0.669729 8.81779 -0.335229
0.66828 8.74972 -0.332947
-0.89936 6.85883 0.44993
-0.861367 6.86062 0.424954
-0.878559 6.89505 0.443427
-0.854018 6.89566 0.389485
-0.856769 6.94832 0.397579
-0.867622 6.8592 0.35124
-0.906654 7.01479 0.332442
-0.910778 7.03212 0.332942
-0.959258 6.88925 0.358952
-0.959803 6.85413 0.361741
-0.969387 6.85396 0.38782
-0.941141 6.96176 0.442576
-0.944218 6.92641 0.440057
-0.905269 7.22407 0.435609
-0.931675 7.11963 0.443555
-0.905544 7.10389 0.440676
-0.91062 7.13795 0.439938
-0.878104 7.1394 0.413435
-0.887182 7.17335 0.421257
-0.904856 7.30986 0.427955
-0.899167 7.27578 0.424604
-0.883066 7.29338 0.391443
-0.877817 7.22499 0.392828
-0.900939 7.1714 0.342113
-0.937175 7.15207 0.336112
-0.937175 7.15207 0.336112
-0.964214 7.08209 0.354111
-0.980197 7.2366 0.409232
-0.97646 7.151 0.414184
-0.986161 8.32506 0.404269
-1.00416 8.4097 0.403554
-0.998161 8.32441 0.405921
-0.956802 8.29213 0.376932
-0.9817 8.42746 0.345569
-1.01584 8.37417 0.346515
-1.01661 8.39126 0.346636
-1.01919 8.4254 0.348258
-1.02453 8.32265 0.37891
-1.02669 8.35671 0.371858
-1.03066 8.44207 0.364528
-0.99128 8.73546 0.361857
-0.987148 8.68433 0.364744
-0.986101 8.66724 0.363288
-0.984008 8.63306 0.360376
-0.982113 8.59886 0.356014
-0.987291 8.66708 0.354583
-0.977584 8.54777 0.361802
-1.0074 8.73438 0.343113
-1.02738 8.73329 0.344819
-1.00667 8.56309 0.341718
-1.03316 8.56199 0.37668
-1.03778 8.66444 0.368926
1.75799 7.78687 -0.364711
1.7448 7.75731 -0.367223
1.7315 7.79734 -0.341828
1.69252 7.70857 -0.352532
1.73061 7.79764 -0.340206
1.75733 7.85593 -0.324235
1.69366 7.725 -0.3384
1.70019 7.73994 -0.339231
1.75263 7.74945 -0.298357
1.73428 7.72203 -0.298098
1.77092 7.7248 -0.320583
1.77269 7.72421 -0.323828
1.76413 7.71196 -0.351225
1.79237 7.76956 -0.335041
1.81898 7.82834 -0.326071
1.81222 7.81372 -0.328765
1.75391 7.71731 -0.363282
1.79671 7.80443 -0.353707
1.86652 8.01938 -0.345937
1.80334 7.94261 -0.33687
1.86009 8.07226 -0.309253
1.90659 8.11933 -0.281337
1.85827 8.01938 -0.287047
1.82577 7.96466 -0.29341
1.86309 7.96526 -0.292507
1.8663 7.94739 -0.308383
1.87557 7.96095 -0.313133
1.87557 7.96095 -0.313133
1.90008 8.01983 -0.315745
1.90628 8.03442 -0.314876
1.84204 7.92594 -0.348319
1.85209 7.93863 -0.344797
1.91643 8.171 -0.329134
1.94673 8.23001 -0.325009
1.97088 8.29154 -0.317073
1.96773 8.2539 -0.27565
1.9504 8.17104 -0.282777
1.95338 8.15384 -0.320354
1.99495 8.28098 -0.321206
1.96089 8.18719 -0.32479
2.04925 8.42394 -0.312158
2.05255 8.48136 -0.285658
2.02102 8.41511 -0.291122
2.0443 8.44386 -0.272683
2.05634 8.43817 -0.268111
2.04672 8.38235 -0.27499
2.07583 8.43051 -0.285527
2.05874 8.39887 -0.30254
2.09741 8.50253 -0.300776
2.09013 8.4857 -0.302031
-0.958241 8.08077 0.674057
-0.95135 7.9435 0.662429
-0.969066 7.94817 0.64507
-0.963975 7.98069 0.654653
-0.989527 7.95 0.643927
-0.996477 8.08295 0.678489
-1.01973 7.98069 0.677934
-0.992548 8.08865 0.738648
-1.01229 7.95707 0.707944
-0.997593 7.93682 0.717087
-0.992795 8.03742 0.734145
-0.943306 8.05399 0.717707
-0.949882 7.92292 0.678815
-0.94489 8.0059 0.69711
-0.93957 8.27715 0.719715
-0.929023 8.3737 0.743588
-0.96368 8.28038 0.712684
-0.978393 8.28041 0.718674
-0.961135 8.41091 0.739847
-0.976458 8.24846 0.707184
-0.987481 8.30695 0.761792
-0.964848 8.30192 0.778989
-0.957508 8.36718 0.790039
-0.93535 8.30141 0.769346
-0.931882 8.22461 0.724944
-0.929952 8.25669 0.734152
-0.923212 8.36832 0.769687
-0.925957 8.55953 0.771905
-0.952645 8.45927 0.749957
-0.955075 8.61108 0.793034
-0.959264 8.47615 0.757331
-0.959914 8.45927 0.752992
-0.954654 8.54389 0.772689
-0.954807 8.64368 0.808294
-0.968027 8.50882 0.775982
-0.95617 8.55403 0.813655
-0.962814 8.53831 0.805683
-0.921765 8.49999 0.803461
-0.9193 8.61907 0.829806
-0.921313 8.61885 0.831801
-0.913146 8.53778 0.78773
0.778503 7.8402 1.40682
0.724759 7.9011 1.41895
0.746341 7.77206 1.38569
0.71208 7.91121 1.45032
0.717083 7.86317 1.4342
0.722613 7.85978 1.4559
0.789942 7.74917 1.44162
0.745502 8.13238 1.46586
0.754817 8.06807 1.45551
0.723235 8.26111 1.48378
0.702771 8.12816 1.46476
0.719816 8.05024 1.44142
0.709228 8.11332 1.45775
0.695505 8.12506 1.4776
0.698076 8.09259 1.47299
0.698749 8.12134 1.49976
0.710211 8.00819 1.48231
0.731042 8.07303 1.50673
0.715234 8.12058 1.51324
0.702868 8.20093 1.52591
0.752658 8.04404 1.49391
0.747577 8.0428 1.49782
0.711069 8.42725 1.52388
0.723503 8.31019 1.49931
0.6861 8.30615 1.50023
0.679774 8.49338 1.52842
0.680568 8.28472 1.51831
0.672783 8.38714 1.52966
0.68109 8.31721 1.53288
0.707074 8.30033 1.54389
0.692355 8.38416 1.55697
0.689844 8.36696 1.55364
0.236638 2.82298 0.0340559
0.342975 2.89488 -0.055856
0.338733 2.87576 -0.0322474
0.382358 2.88614 -0.182512
0.409556 2.98196 -0.237357
0.43791 2.93409 -0.242175
0.426495 2.92393 -0.251817
0.386078 2.94308 -0.264662
0.557288 3.00687 -0.455387
0.51726 3.01543 -0.495382
0.604845 3.05236 -0.555128
0.628359 3.05332 -0.657882
0.69243 3.04894 -0.698569
0.663162 3.05241 -0.639387
0.67091 3.05036 -0.654017
0.668469 3.01303 -0.693175
0.640343 3.01678 -0.671409
0.62498 3.03001 -0.660941
0.714752 3.06307 -0.812761
0.749861 3.02235 -0.868982
0.75315 3.05792 -0.900737
0.758554 3.05342 -0.884119
0.752997 3.01802 -0.914057
0.725185 3.02601 -0.892513
0.785142 3.02963 -1.14621
0.79651 3.02799 -1.1769
0.817638 3.0109 -1.15251
0.785808 3.01321 -1.16119
0.821381 3.01175 -1.27003
0.836893 2.98772 -1.29685
0.876576 3.00327 -1.39982
0.896127 2.98965 -1.40644
0.875383 3.00365 -1.35447
0.916797 2.98939 -1.4754
0.919049 2.98255 -1.47347
0.950415 2.95593 -1.56432
0.981503 2.93776 -1.63585
0.96152 2.94766 -1.61185
0.984633 2.93725 -1.65307
1.04567 2.92364 -1.72846
1.03449 2.91432 -1.71245
1.05236 2.90539 -1.73732
1.04875 2.90419 -1.73944
1.09407 2.89268 -1.80183
1.07396 2.90238 -1.78354
1.13091 2.87116 -1.83988
1.12218 2.87668 -1.83003
1.09106 2.89478 -1.78581
1.08948 2.88856 -1.78416
1.12521 2.87072 -1.8243
1.07314 2.89123 -1.77911
1.23087 2.80597 -1.94546
1.22973 2.80533 -1.94617
1.23829 2.79544 -1.95652
1.22789 2.80225 -1.94611
-1.24385 3.33491 0.157617
-1.24385 3.33491 0.157617
-1.17784 3.33933 0.143906
-1.26569 3.31758 0.212795
-1.60344 3.27875 0.231579
-1.64572 3.25104 0.243804
-1.80464 3.18239 0.324428
-1.75649 3.19572 0.311874
-2.12532 3.0656 0.347962
-2.19437 3.0078 0.335467
-2.13183 3.03326 0.331479
-2.11268 3.03283 0.342161
-2.14438 3.02104 0.34348
-2.11303 3.03602 0.355401
-2.33401 2.94992 0.344759
-2.67009 2.71979 0.4447
-2.61983 2.75593 0.414698
-2.71946 2.65309 0.464239
-2.72614 2.64061 0.476449
-2.71558 2.65228 0.470093
-2.74736 2.61625 0.486808
-2.72771 2.64355 0.479748
0.799977 3.74386 0.633311
0.841056 3.73922 0.725997
0.806394 3.72618 0.700489
0.898087 3.70644 0.66969
0.952473 3.73848 0.741064
0.942943 3.72323 0.719318
0.899101 3.7496 0.76175
0.914261 3.74862 0.778432
0.943056 3.70109 0.719814
-0.335321 3.90307 -0.543572
-0.341181 3.89097 -0.640229
-0.345362 3.87499 -0.48538
-0.346141 3.87374 -0.50872
-0.370322 3.83471 -0.5005
-0.40423 3.83754 -0.549996
-0.451452 3.87585 -0.556054
-0.456361 3.8528 -0.506127
-0.407701 4.02251 -0.773976
-0.404531 4.00999 -0.721351
-0.349979 4.00329 -0.693795
-0.411572 4.01658 -0.810603
-0.403062 4.03222 -0.897539
-0.37158 4.04763 -0.807122
-0.380153 4.04665 -0.82041
-0.316979 4.07173 -0.922759
-0.329773 4.06233 -0.880019
-0.325922 4.06442 -0.890701
-0.29151 4.03614 -0.940711
-0.291501 4.03048 -0.930851
-0.305461 4.0147 -0.844124
-0.308951 4.01075 -0.822443
-0.328024 3.95534 -0.842341
-0.32923 3.95764 -0.85319
-0.37128 3.96349 -0.891166
-0.366083 3.9538 -0.870773
-0.407772 3.97647 -0.846095
-0.321268 4.10741 -1.05266
-0.297635 4.06617 -0.969783
-0.31081 4.00492 -1.01125
-0.338779 3.98721 -0.98216
-0.357451 4.03657 -1.1452
-0.363356 4.01068 -1.04108
-0.360397 4.0001 -1.00627
-0.375572 4.0669 -1.12964
-0.387892 4.03525 -1.01356
-0.362948 4.10319 -1.17108
-0.326472 4.13521 -1.2361
-0.301938 4.14501 -1.30589
-0.306069 4.13983 -1.25791
-0.270774 4.10378 -1.22335
-0.289953 4.0441 -1.19727
-0.33622 4.04244 -1.21368
-0.343257 4.04928 -1.23694
-0.272921 4.13378 -1.81348
-0.282539 4.1388 -1.75441
-0.241197 4.12675 -1.82017
-0.255602 4.1374 -1.71492
-0.242696 4.12386 -1.72479
-0.237133 4.11946 -1.77167
-0.23725 4.08381 -1.7569
-0.275079 4.06051 -1.75968
-0.278856 4.06203 -1.76016
-0.286451 4.10883 -1.88664
-0.271716 4.09112 -1.96765
-0.271043 4.11713 -1.90953
-0.205196 4.05953 -1.97433
-0.21084 4.06534 -1.94033
-0.217235 4.06277 -1.91741
-0.219256 4.08398 -1.8726
-0.219256 4.08398 -1.8726
-0.229277 4.03944 -1.98867
-0.25143 4.05037 -1.88629
-0.258313 4.04889 -1.9719
-0.260045 4.04958 -1.97226
-0.265611 4.053 -1.93739
-0.278969 4.07031 -1.92938
-0.283117 4.07132 -1.90607
-0.138538 3.98894 -2.45481
-0.151991 4.00562 -2.39947
-0.119227 3.98925 -2.47567
-0.109576 3.99813 -2.43768
-0.13184 4.02125 -2.37339
-0.10464 3.99617 -2.39771
-0.104149 3.9949 -2.39724
-0.112013 3.97544 -2.36843
-0.0864472 3.93287 -2.50222
-0.154658 3.97458 -2.40409
-0.116132 3.93601 -2.57355
-0.117861 3.94172 -2.56287
-0.0784495 3.93302 -2.6535
-0.0848372 3.93968 -2.63137
-0.0824583 3.94069 -2.63112
-0.0673459 3.94637 -2.57799
-0.0584745 3.90617 -2.61483
-0.0689291 3.89799 -2.61483
-0.0714734 3.90548 -2.59221
-0.0666331 3.90325 -2.60314
-0.0616297 3.87202 -2.69443
0.0186056 3.78482 -3.04913
0.0161027 3.77678 -3.07152
0.0198552 3.73317 -3.16954
0.0208709 3.74588 -3.1361
0.0223776 3.76756 -3.08057
-0.498331 4.26412 0.15101
-0.5876 4.31962 0.113952
-0.570891 4.338 0.138065
-0.644647 4.24526 0.204401
-0.629395 4.23169 0.116387
-0.558752 4.2431 0.245987
-0.567562 4.19932 0.177885
-0.534216 4.30627 0.266287
-0.507831 4.22291 0.153747
-0.580582 4.39027 0.368013
-0.560323 4.35229 0.336715
-0.558923 4.35559 0.321313
-0.606517 4.42031 0.344645
-0.60271 4.41522 0.334191
-0.647272 4.39241 0.273871
-0.665882 4.37017 0.264511
-0.715261 4.35861 0.425816
-0.590049 4.36375 0.406509
-0.572048 4.28825 0.322
-0.56873 4.29394 0.320271
-0.625357 4.46025 0.475574
-0.653004 4.48814 0.611106
-0.726219 4.44491 0.437638
-0.761981 4.44209 0.592633
-0.740793 4.40279 0.513731
-0.698537 4.36509 0.485383
-0.632589 4.39543 0.505255
-0.62772 4.39288 0.493684
-0.621686 4.42491 0.508522
-0.6234 4.43285 0.518433
-0.714489 4.56333 0.619968
-0.709306 4.56097 0.622192
-0.698315 4.58271 0.706209
-0.699834 4.59231 0.731991
-0.684913 4.55879 0.659092
-0.73744 4.61293 0.733613
-0.729521 4.55438 0.605591
-0.76089 4.47141 0.685037
-0.767292 4.48447 0.709227
-0.722815 4.4906 0.744545
-0.679288 4.51331 0.711482
-0.699703 4.66395 0.936088
-0.730797 4.67422 0.88825
-0.716874 4.65537 0.867735
-0.740748 4.67928 0.885374
-0.78182 4.68865 0.928174
-0.801999 4.64663 0.901815
-0.806689 4.6099 0.823886
-0.80652 4.58194 0.852582
-0.805048 4.57691 0.854985
-0.731163 4.55216 0.869969
-0.758988 4.5449 0.87181
-0.700312 4.71303 1.01547
-0.7076 4.79205 1.1318
-0.719572 4.73275 1.02237
-0.741013 4.75582 1.05652
-0.786817 4.72444 1.07769
-0.7252 4.65739 1.08698
-0.693169 4.67452 1.04683
-0.655856 4.79697 1.22963
-0.650146 4.78768 1.24637
-0.676577 4.85686 1.29239
-0.670312 4.81915 1.22348
-0.719846 4.82162 1.20409
-0.722478 4.82883 1.22885
-0.746787 4.80359 1.21709
-0.750955 4.79867 1.24665
-0.745022 4.80898 1.26743
-0.747587 4.75406 1.23879
-0.722673 4.77075 1.30434
-0.724707 4.7777 1.3147
-0.724481 4.78893 1.33571
-0.747075 4.74616 1.22917
-0.690409 4.75839 1.30355
-0.650393 4.7905 1.36396
-0.626756 4.84363 1.39868
-0.644648 4.89847 1.502
-0.63791 4.87491 1.3906
-0.720214 4.84474 1.39176
-0.720793 4.86669 1.48021
-0.695705 4.82125 1.47686
-0.699602 4.82098 1.46388
-0.648693 4.8457 1.59362
-0.633273 4.83117 1.43143
-0.626374 4.83519 1.40081
-0.640239 4.90611 1.61514
-0.645756 4.90694 1.64264
-0.65219 4.88966 1.70022
-0.659239 4.8968 1.72685
-0.671323 4.92158 1.69649
-0.658331 4.91379 1.69864
-0.713538 4.84753 1.77293
-0.704081 4.8452 1.72107
-0.710489 4.8507 1.69329
-0.714202 4.85293 1.69268
-0.682225 4.85456 1.76633
-0.687126 4.84971 1.72551
-0.656761 4.85014 1.64667
-0.649469 4.85263 1.62028
-0.635865 4.87502 1.61908
-0.690833 4.89507 1.86068
-0.694242 4.8913 1.87262
-0.727199 4.92521 1.85315
-0.746841 4.91738 1.82173
-0.765667 4.87658 1.85137
-0.772582 4.88856 1.86262
-0.73349 4.84229 1.90785
-0.692517 4.86971 1.85828
-0.697426 4.87164 1.88275
-0.82691 4.85936 2.14317
-0.783613 4.87789 2.06765
-0.81241 4.87913 2.0706
-0.836127 4.86181 2.07013
-0.823258 4.87444 2.0507
-0.803821 4.88738 2.00686
-0.803426 4.85132 1.98604
-0.841095 4.84579 2.0634
-0.809871 4.80185 2.12166
-0.789115 4.81494 2.06488
-0.780602 4.83288 2.10056
-0.861479 4.8052 2.25006
-0.836076 4.82778 2.20429
-0.909179 4.80991 2.29174
-0.898733 4.82757 2.22027
-0.873772 4.84111 2.18881
-0.920544 4.80262 2.2329
-0.883847 4.83285 2.18099
-0.897385 4.79143 2.19334
-0.903475 4.81024 2.196
-0.895107 4.77759 2.2062
-0.843042 4.78366 2.18688
-0.873503 4.76801 2.23087
-0.852877 4.78129 2.18112
-0.860843 4.77729 2.19192
-0.875303 4.77163 2.26449
-1.0205 4.73803 2.46963
-1.01504 4.74398 2.45825
-0.958211 4.77269 2.38597
-1.07325 4.7238 2.49568
-1.02678 4.74955 2.434
-0.988305 4.76836 2.39835
-1.01173 4.75166 2.39323
-1.03549 4.73594 2.42218
-1.03702 4.73242 2.4199
-0.998282 4.74491 2.36609
-0.980435 4.72064 2.36891
-0.995584 4.70575 2.40434
-1.05905 4.66978 2.52133
-0.947649 4.727 2.37623
-1.08054 4.68182 2.56143
-1.07832 4.70962 2.54205
-1.12219 4.67843 2.59239
-1.09316 4.70846 2.54573
-1.17104 4.66631 2.5939
-1.10692 4.70408 2.53165
-1.10866 4.68069 2.51918
-1.17367 4.62162 2.60303
-1.14465 4.64001 2.56972
-1.11466 4.65765 2.53689
-1.3255 4.55467 2.78382
-1.23955 4.59871 2.70924
-1.30959 4.5654 2.7687
-1.27859 4.58752 2.73799
-1.23599 4.61202 2.70178
-1.27166 4.60459 2.71768
-1.31479 4.5824 2.73615
-1.25573 4.57887 2.67995
-1.28188 4.55293 2.73199
-1.20834 4.59519 2.66334
-1.40422 4.48335 2.86838
-1.35365 4.51884 2.81483
-1.35706 4.54235 2.80575
-1.36259 4.53409 2.8161
-1.38938 4.52682 2.82771
-1.40405 4.51469 2.8479
-1.39811 4.52072 2.81547
-1.41338 4.51239 2.83777
-1.44359 4.46641 2.86309
-1.41171 4.49278 2.82634
-1.38056 4.5209 2.79
-1.35622 4.52215 2.77206
-1.387 4.49431 2.85033
-1.48657 4.42621 2.96053
-1.53642 4.37967 3.02695
-1.52401 4.4099 2.99884
-1.47575 4.446 2.94316
-1.53504 4.41082 2.99085
-1.5514 4.3933 3.00574
-1.56636 4.37685 3.02245
-1.56258 4.36839 3.0194
-1.55177 4.37128 3.0103
-1.4912 4.42995 2.91997
-1.51574 4.39312 2.97434
-1.48678 4.41496 2.95296
-1.47215 4.42798 2.9341
-1.6041 4.3311 3.1112
-1.62571 4.30522 3.14576
-1.62753 4.31458 3.11749
-1.62144 4.3232 3.11078
-1.60535 4.34187 3.08422
-1.60371 4.33171 3.07837
-1.63889 4.30004 3.1333
-1.63347 4.29183 3.13118
-1.60965 4.31499 3.09632
-1.66167 4.262 3.17522
-1.61277 4.31677 3.09541
-1.59227 4.32137 3.09573
-1.68 4.24089 3.23174
-1.69677 4.22161 3.2574
-1.71301 4.21017 3.27242
-1.707 4.21907 3.24926
-1.69129 4.24046 3.22445
-1.70015 4.21045 3.24724
-1.69713 4.21018 3.24891
-1.70367 4.20184 3.27213
-1.77219 4.12759 3.38048
-1.82082 4.07766 3.44671
-1.79019 4.11437 3.39765
-1.84482 4.04841 3.48635
-1.77235 4.1307 3.36375
-1.78296 4.11516 3.38376
-1.80414 4.08638 3.42551
-1.77125 4.122 3.37699
0.609018 4.69948 -0.126857
0.610893 4.68274 -0.135486
0.599344 4.67859 -0.130959
0.572736 4.72072 -0.0542891
0.65298 4.73571 -0.131522
0.576088 4.71116 -0.0180104
0.631131 4.73235 -0.0455392
0.623816 4.71189 -0.00807462
0.635166 4.71584 -0.0129652
0.686786 4.64778 -0.0168848
0.632574 4.59577 -0.007621
0.700097 4.61775 -0.118719
0.575479 4.62949 -0.120379
0.838219 4.80633 -0.191521
0.757354 4.77427 -0.1662
0.835984 4.8031 -0.12864
0.784249 4.76615 -0.0734317
0.824702 4.7373 -0.0730068
0.776284 4.65228 -0.159997
0.836568 4.67122 -0.174395
1.07331 4.88331 -0.292791
1.03783 4.73954 -0.23303
0.995247 4.72806 -0.201866
1.05787 4.77725 -0.298811
0.985048 4.75879 -0.2728
1.22668 4.92685 -0.328331
1.1845 4.9172 -0.314846
1.22806 4.91933 -0.285235
1.16685 4.91396 -0.276285
1.15803 4.85328 -0.216694
1.21655 4.89071 -0.251304
1.32147 4.92221 -0.298267
1.21471 4.85357 -0.237584
1.1698 4.78961 -0.271302
1.21771 4.80918 -0.338253
1.2086 4.86031 -0.373653
1.12447 4.84803 -0.344523
1.49589 4.95263 -0.460617
1.45392 4.95504 -0.442831
1.36663 4.9559 -0.374996
1.40688 4.95954 -0.394359
1.52446 4.96597 -0.463322
1.39319 4.95044 -0.348906
1.37685 4.92736 -0.317923
1.3777 4.92458 -0.317024
1.54768 4.91345 -0.368288
1.49929 4.85849 -0.398969
1.43393 4.84924 -0.370416
1.38116 4.84116 -0.349205
1.53458 4.87905 -0.468031
1.37151 4.83565 -0.378528
1.39642 4.84251 -0.392691
1.3575 4.84974 -0.409224
1.41813 4.88639 -0.442537
1.56392 4.96735 -0.480013
1.57601 4.95288 -0.490583
1.60074 4.95004 -0.499962
1.59505 4.94753 -0.391584
1.64723 4.93911 -0.402928
1.74379 4.90619 -0.44657
1.62358 4.91097 -0.400073
1.64212 4.88264 -0.478532
1.5616 4.8836 -0.477178
1.5722 4.88872 -0.484046
1.79326 4.9875 -0.536522
1.77024 4.99068 -0.523629
1.85751 4.98998 -0.512165
1.85519 4.9542 -0.475309
1.81979 4.94803 -0.459132
1.79428 4.92935 -0.454339
1.84124 4.89319 -0.510561
1.78099 4.90257 -0.536375
1.76214 4.93835 -0.551437
1.8581 4.91655 -0.574774
2.07897 4.91648 -0.671493
2.07959 4.91875 -0.670668
1.95283 4.93893 -0.616927
2.03149 4.9625 -0.623611
1.99176 4.93902 -0.523769
2.0046 4.9429 -0.532994
2.00381 4.96135 -0.540546
2.05618 4.9538 -0.568003
2.09765 4.8868 -0.585617
2.03792 4.91099 -0.550965
2.04471 4.87569 -0.626591
2.05395 4.87717 -0.640817
2.16033 4.9115 -0.70323
2.23488 4.87158 -0.753211
2.24401 4.86271 -0.761254
2.18675 4.88287 -0.727931
2.24809 4.89871 -0.727382
2.20451 4.92159 -0.693852
2.19195 4.92882 -0.658193
2.22474 4.81789 -0.708305
2.17159 4.87198 -0.717723
2.25788 4.82277 -0.766636
2.41111 4.78526 -0.871576
2.38684 4.78816 -0.859249
2.39299 4.79669 -0.857699
2.43684 4.79043 -0.821215
2.39306 4.79717 -0.765064
2.41115 4.7912 -0.784183
2.43017 4.79074 -0.806377
2.38713 4.81851 -0.765754
2.438 4.74892 -0.807782
2.35754 4.76029 -0.780933
2.3554 4.77825 -0.751712
2.4128 4.71152 -0.848808
2.41359 4.71063 -0.847048
2.39247 4.72787 -0.843522
2.32934 4.77277 -0.78191
2.35621 4.77457 -0.839706
2.55634 4.65608 -0.999812
2.54352 4.69206 -0.956232
2.50094 4.73949 -0.910054
2.49044 4.74643 -0.905183
2.5056 4.73089 -0.919768
2.53885 4.70066 -0.946518
2.5319 4.6865 -0.89416
2.50769 4.67134 -0.882945
2.55033 4.63968 -0.919813
2.58815 4.6183 -0.948982
2.56177 4.63645 -0.926931
2.51605 4.62289 -0.940466
2.46848 4.66799 -0.899878
2.70353 4.51253 -1.12476
2.69437 4.52117 -1.11734
2.63075 4.56435 -1.0733
2.59955 4.58656 -1.05125
2.69673 4.54577 -1.08559
2.65958 4.5799 -1.05674
2.6666 4.57384 -1.04239
2.68967 4.55225 -1.07368
2.63977 4.55861 -1.00216
2.66001 4.54438 -1.01742
2.58748 4.55805 -1.03444
2.61619 4.53216 -1.05558
2.60746 4.53984 -1.04657
2.61991 4.5494 -1.06998
2.74375 4.46304 -1.16172
2.78009 4.42694 -1.18887
2.84395 4.36406 -1.23634
2.79464 4.43931 -1.18385
2.87898 4.36357 -1.24737
2.79334 4.45453 -1.14482
2.76409 4.48002 -1.12575
2.84701 4.38383 -1.16521
2.79153 4.43698 -1.12659
2.83754 4.37348 -1.16613
2.83431 4.37005 -1.1664
2.7839 4.40737 -1.13141
2.77009 4.39823 -1.16875
2.73017 4.44062 -1.15367
2.94322 4.29479 -1.29529
2.97979 4.28011 -1.30663
2.94192 4.32523 -1.25272
2.93258 4.33386 -1.24955
3.03201 4.24512 -1.32432
3.00695 4.26755 -1.30624
2.94836 4.30126 -1.24023
2.91986 4.28778 -1.23768
2.90062 4.30139 -1.22815
2.90722 4.30415 -1.27676
3.06788 4.175 -1.37598
3.03478 4.20758 -1.35558
3.04627 4.21796 -1.35245
3.11641 4.16314 -1.3733
3.07339 4.20589 -1.3525
3.08747 4.15181 -1.34154
3.09329 4.14147 -1.3472
3.19955 4.05082 -1.45406
3.24681 4.01935 -1.47133
3.17312 4.09699 -1.42815
3.30029 3.96786 -1.48199
3.29607 3.95979 -1.4744
3.22574 4.01873 -1.43169
3.21528 4.02677 -1.42583
3.19224 4.04144 -1.45028
3.26295 3.96 -1.49036
3.18009 4.04434 -1.43896
3.35265 3.88422 -1.54697
3.35265 3.88422 -1.54697
3.36856 3.86264 -1.55749
3.41418 3.82725 -1.57226
3.32299 3.9424 -1.5124
3.38468 3.86616 -1.53922
3.39796 3.83919 -1.54354
3.38159 3.8602 -1.53276
3.35013 3.86892 -1.52326
3.34502 3.86783 -1.52911
3.31001 3.91534 -1.52138
3.4758 3.73285 -1.6217
3.50546 3.70601 -1.6254
3.4781 3.74534 -1.60869
3.47923 3.74249 -1.60107
3.49166 3.70477 -1.60917
3.47275 3.73474 -1.59535
3.48843 3.71715 -1.60459
3.51528 3.66444 -1.62879
3.53252 3.64047 -1.65813
3.59213 3.56593 -1.69226
3.57054 3.5948 -1.68015
3.57205 3.59588 -1.6802
3.5964 3.56801 -1.69021
3.57468 3.59746 -1.67959
3.59538 3.5677 -1.69111
3.64983 3.48395 -1.71306
3.59111 3.55904 -1.67829
3.63644 3.49411 -1.72003
3.58051 3.57143 -1.68592
3.71702 3.39095 -1.76138
3.70927 3.40229 -1.75707
3.67012 3.4548 -1.72658
3.72444 3.37845 -1.76357
3.69862 3.40903 -1.74688
3.66978 3.45447 -1.72638
3.78275 3.28918 -1.80731
3.67901 3.43163 -1.74456
3.71115 3.3881 -1.76422
3.68717 3.42091 -1.74967
-0.600613 4.92309 -0.66609
-0.725001 4.9989 -0.752616
-0.677208 4.98178 -0.747652
-0.603108 4.86142 -0.791466
-0.73351 4.8553 -0.757954
-0.654759 4.8395 -0.77124
-0.713891 4.85612 -0.70843
-0.713891 4.85612 -0.70843
-0.677599 4.8353 -0.721934
-0.616894 4.8818 -0.650863
-0.665009 4.89881 -0.660192
-0.860124 4.98559 -0.70627
-0.774539 5.01487 -0.748468
-0.845642 5.01888 -0.721107
-0.817871 5.02079 -0.795512
-0.866372 4.94306 -0.829607
-0.81236 4.94365 -0.827814
-0.821615 4.8978 -0.792618
-0.81713 4.88472 -0.769085
-0.891908 4.96998 -0.710184
-0.993688 5.01647 -0.727709
-1.01788 5.08511 -0.769977
-1.04651 5.10551 -0.813096
-0.960191 5.07973 -0.793589
-1.09687 5.10485 -0.859949
-1.01561 5.0104 -0.859396
-1.14791 5.0066 -0.823967
-1.09869 4.99018 -0.819375
-1.07455 4.98138 -0.815634
-1.04393 4.98089 -0.832123
-1.02441 4.96615 -0.813932
-1.00118 4.95616 -0.807301
-1.0772 4.99578 -0.765283
-1.27108 5.1411 -0.779124
-1.27078 5.17776 -0.828165
-1.20761 5.14677 -0.798419
-1.25862 5.15872 -0.869381
-1.21621 5.15677 -0.837948
-1.18828 5.13886 -0.862338
-1.16093 5.12569 -0.867801
-1.25121 5.08278 -0.88244
-1.25922 5.10352 -0.889246
-1.19754 5.02545 -0.833012
-1.19127 5.0361 -0.857849
-1.30768 5.06095 -0.829425
-1.30764 5.06307 -0.823636
-1.17669 5.06507 -0.765708
-1.52578 5.21916 -0.79067
-1.47469 5.19593 -0.7873
-1.41947 5.18578 -0.788728
-1.45039 5.18039 -0.784175
-1.466 5.17282 -0.896453
-1.5207 5.14116 -0.868659
-1.42859 5.10521 -0.822526
-1.54525 5.15333 -0.79786
-1.65994 5.27198 -0.798658
-1.74358 5.2926 -0.789257
-1.64857 5.26639 -0.79438
-1.63383 5.2433 -0.883159
-1.65515 5.25968 -0.876299
-1.74596 5.20398 -0.844087
-1.62828 5.16755 -0.852334
-1.76322 5.2201 -0.790009
-1.76322 5.2201 -0.790009
-1.84114 5.30333 -0.773695
-1.7955 5.28519 -0.776796
-1.8399 5.32682 -0.801722
-1.81594 5.31251 -0.786745
-1.81588 5.31365 -0.789034
-1.85188 5.33397 -0.80921
-1.87821 5.30296 -0.858751
-1.92381 5.26628 -0.846863
-1.80963 5.27048 -0.874148
-1.87694 5.2465 -0.841888
-1.82901 5.23929 -0.858345
-1.88596 5.24095 -0.804157
-1.88774 5.23795 -0.813763
-1.98588 5.34778 -0.762961
-2.07187 5.37371 -0.778989
-2.06193 5.28408 -0.805547
-2.0489 5.28511 -0.814401
-2.05061 5.2955 -0.749066
-2.28616 5.35641 -0.692195
-2.22088 5.3836 -0.729578
-2.29587 5.3931 -0.740852
-2.23932 5.34659 -0.792578
-2.25188 5.31539 -0.771341
-2.2779 5.31573 -0.760498
-2.34799 5.32042 -0.69975
-2.23879 5.31895 -0.715337
-2.43183 5.38582 -0.660659
-2.42812 5.40359 -0.692317
-2.45132 5.40195 -0.682277
-2.46218 5.39966 -0.674697
-2.51979 5.39323 -0.68962
-2.49494 5.39491 -0.694586
-2.49141 5.39829 -0.683443
-2.47127 5.39547 -0.703266
-2.51094 5.37804 -0.703692
-2.5106 5.37982 -0.702773
-2.44153 5.34106 -0.729274
-2.58353 5.36096 -0.682632
-2.42504 5.32653 -0.716639
-2.46283 5.33253 -0.713967
-2.43862 5.33049 -0.719162
-2.41276 5.32813 -0.676832
-2.43935 5.32501 -0.679743
-2.50281 5.3382 -0.638837
-2.46852 5.33619 -0.651585
-2.56155 5.33327 -0.621884
-2.6041 5.39597 -0.625265
-2.67571 5.36693 -0.645429
-2.67669 5.36045 -0.648878
-2.63004 5.36012 -0.665291
-2.76464 5.32686 -0.605966
-2.64699 5.32965 -0.642695
-2.61137 5.32683 -0.616166
-2.81139 5.34929 -0.529992
-2.89221 5.36963 -0.551818
-2.86405 5.37347 -0.554487
-2.8154 5.36791 -0.587853
-2.97677 5.33609 -0.552331
-2.81678 5.3489 -0.597056
-2.91982 5.31692 -0.560031
-2.82694 5.3164 -0.541601
-2.82915 5.31409 -0.549351
-2.80295 5.31481 -0.559602
-3.15763 5.31791 -0.457961
-3.07852 5.3496 -0.484875
-3.02877 5.35578 -0.521773
-3.21921 5.34374 -0.472834
-3.04 5.30626 -0.52457
-3.01174 5.30629 -0.526693
-3.05152 5.30038 -0.513361
-3.03151 5.32151 -0.47859
-3.30265 5.31415 -0.443312
-3.35182 5.30731 -0.438586
-3.26912 5.33553 -0.4617
-3.31735 5.32662 -0.450649
