ply
format ascii 1.0
comment VCGLIB generated
element vertex 1845
property float x
property float y
property float z
element face 0
property list uchar int vertex_indices
end_header
1.82344 8.35126 1.55611
1.85302 8.422 1.58568
1.85239 8.43374 1.60657
1.84578 8.41994 1.60054
1.80616 8.33711 1.5644
1.85238 8.43439 1.60475
1.79956 8.32267 1.56019
1.82971 8.31824 1.58861
1.83846 8.34854 1.59857
1.87362 8.43598 1.62719
1.86393 8.37419 1.6009
1.87549 8.39329 1.58571
1.87553 8.39039 1.5939
1.80374 8.22147 1.52144
1.84116 8.32539 1.55399
-0.479939 3.94868 -0.402542
-0.507297 3.93987 -0.422979
-0.482769 3.93165 -0.401465
-0.432086 3.97609 -0.385656
-0.303531 3.9585 -0.514638
-0.410904 3.82441 -0.585729
-0.475587 3.85264 -0.576767
-0.465638 3.75816 -0.553649
-0.522576 3.91326 -0.452499
-0.519508 3.80504 -0.478802
-0.478513 4.09357 -0.427781
-0.484526 4.13985 -0.440829
-0.508197 4.14779 -0.461292
-0.382605 4.12228 -0.434698
-0.421617 4.19681 -0.452379
-0.325028 4.05827 -0.581834
-0.332415 4.10583 -0.593609
-0.346041 4.09989 -0.608653
-0.360224 4.1618 -0.627577
-0.318265 4.00927 -0.575434
-0.554882 4.18874 -0.537167
-0.660803 5.02125 -0.657824
-0.662102 4.86818 -0.653528
-0.616707 5.00032 -0.653538
-0.638656 5.02738 -0.658294
-0.560746 4.91162 -0.81577
-0.634321 4.94041 -0.830577
-0.633807 4.95699 -0.834406
-0.631291 4.8918 -0.819921
-0.713571 4.94839 -0.769477
-0.734948 5.12612 -0.714921
-0.741784 5.1231 -0.719964
-0.66238 5.21799 -0.706003
-0.665489 5.05337 -0.662125
-0.650921 5.26933 -0.724219
-0.596439 5.22267 -0.773668
-0.607736 5.24997 -0.793243
-0.660223 5.18178 -0.881342
-0.695816 5.10679 -0.860145
-0.730514 5.18083 -0.872249
-0.752685 5.16429 -0.838445
-0.822168 5.61336 -0.790883
-0.739763 5.69643 -0.867073
-0.768472 5.76491 -0.868489
-0.792471 5.83336 -0.876273
-0.801778 5.81634 -0.853629
-0.765892 5.73074 -0.851859
-0.742867 5.68588 -0.914731
-0.756313 5.73926 -0.916911
-0.801869 5.81191 -0.973582
-0.760425 5.67543 -0.945086
-0.757393 5.67665 -0.942848
-0.831588 5.78137 -0.992288
-0.829991 5.74495 -0.984669
-0.855242 5.79447 -0.992079
-0.93035 5.8131 -0.895401
-0.897474 5.89672 -0.855428
-0.876886 5.99827 -0.879841
-0.897219 6.07409 -0.895742
-0.845782 6.03295 -1.00051
-0.895396 5.99797 -1.02779
-0.975811 6.03371 -0.997412
-0.983179 6.04457 -0.933006
-1.01019 6.25327 -0.951479
-0.925701 6.19657 -0.924035
-0.902397 6.21417 -0.94893
-0.927173 6.27526 -0.951906
-0.914679 6.21465 -0.932553
-0.917478 6.30959 -1.03742
-0.889016 6.22477 -0.995004
-0.889786 6.22306 -1.00157
-0.906621 6.20995 -1.04265
-0.959701 6.19226 -1.06081
-1.04234 6.27726 -1.03382
-1.06003 6.52883 -1.00604
-1.00375 6.55764 -1.03013
-0.957746 6.37029 -0.969343
-0.990904 6.56313 -1.09546
-0.988349 6.57045 -1.07158
-0.978315 6.53642 -1.06281
-0.932839 6.3842 -1.0204
-1.0136 6.52916 -1.12594
-1.02445 6.37978 -1.09752
-1.09076 6.5132 -1.10579
-1.13904 6.68274 -1.08077
-1.04291 6.72936 -1.15009
-1.11692 6.82486 -1.21679
-1.13614 6.82031 -1.21334
-1.21854 7.01881 -1.18341
-1.1719 6.94204 -1.13789
-1.16776 7.10902 -1.2227
-1.10787 6.93481 -1.2168
-1.11193 6.9521 -1.21446
-1.15524 7.078 -1.2705
-1.20582 7.00903 -1.27267
-1.20777 7.07106 -1.29442
-1.20445 6.94997 -1.24215
-1.2259 6.97352 -1.20621
-1.21801 6.94332 -1.19863
-1.26534 7.2917 -1.27334
-1.27408 7.32045 -1.28467
-1.18963 7.19405 -1.26384
-1.19443 7.2084 -1.26924
-1.20546 7.23729 -1.27824
-1.21506 7.26597 -1.28904
-1.2163 7.26992 -1.32639
-1.22585 7.29879 -1.33668
-1.22585 7.29879 -1.33668
-1.20987 7.14991 -1.32008
-1.23965 7.27016 -1.35512
-1.24056 7.1414 -1.31762
-1.2917 7.20651 -1.29029
-1.34978 7.47161 -1.35292
-1.38413 7.54844 -1.3906
-1.34001 7.41948 -1.33822
-1.28627 7.42096 -1.3241
-1.28236 7.42191 -1.32482
-1.30911 7.48585 -1.34811
-1.3378 7.54932 -1.37106
-1.35084 7.56376 -1.37572
-1.31514 7.56709 -1.39767
-1.29969 7.52661 -1.41206
-1.29452 7.447 -1.41386
-1.33232 7.56269 -1.45346
-1.36023 7.57098 -1.46305
-1.35825 7.48382 -1.42571
-1.38454 7.72544 -1.43533
-1.40595 7.80439 -1.46371
-1.38178 7.75701 -1.45709
-1.34033 7.66108 -1.44047
-1.4083 7.81924 -1.53104
-1.32887 7.60276 -1.45402
-1.43703 7.82567 -1.54255
-1.45525 7.79155 -1.51406
-1.44961 7.76858 -1.47415
-1.51423 8.03294 -1.55187
-1.46953 7.94312 -1.51122
-1.46303 8.02207 -1.58172
-1.4532 7.99704 -1.56539
-1.44527 7.96481 -1.56908
-1.48336 7.94971 -1.57955
-1.50362 8.035 -1.60615
-1.48316 7.9648 -1.58463
-1.50361 7.97714 -1.57897
-1.54651 8.19122 -1.59919
-1.56914 8.2747 -1.62901
-1.53685 8.22274 -1.61393
-1.53503 8.24774 -1.64117
-1.56014 8.2783 -1.67721
-1.58409 8.27132 -1.67612
-1.5662 8.18045 -1.61356
-1.57081 8.19192 -1.62518
-1.61254 8.46359 -1.70041
-1.59754 8.41661 -1.68393
-1.62682 8.52225 -1.73968
-1.61073 8.47746 -1.71763
-1.62291 8.5041 -1.74076
-1.63155 8.51795 -1.74833
-1.57873 8.36103 -1.69711
-1.63495 8.46367 -1.73696
-1.62182 8.41561 -1.72203
-1.62378 8.43222 -1.72745
-1.62064 8.36797 -1.69476
-1.66124 8.5113 -1.74099
-1.65485 8.51054 -1.74919
-1.61651 8.3574 -1.67301
0.329231 3.89249 -0.0624468
0.317001 3.88149 0.0209264
0.320073 3.8978 0.0141344
0.336205 3.99782 0.00852513
0.332305 3.86411 0.0616779
0.505449 3.99358 0.0981057
0.487606 3.86027 0.107379
0.553272 3.87963 0.0127716
0.525335 3.91286 -0.0848189
0.518751 3.98101 -0.104611
0.40918 3.84334 -0.119319
0.371948 4.14305 -0.0728015
0.403049 4.17032 -0.0961935
0.417623 4.20177 -0.105012
0.430247 4.26887 -0.108074
0.353001 4.09893 0.0148616
0.384857 4.26716 0.00443969
0.42319 4.29749 0.0517516
0.412744 4.28159 0.044297
0.498194 4.28478 0.0855395
0.447345 4.19083 0.090431
0.481944 4.2919 -0.133826
0.642777 4.96916 -0.166082
0.631597 5.08652 -0.109029
0.655716 5.14998 -0.114695
0.630896 4.95429 0.019165
0.671748 5.08243 -0.00328887
0.671748 5.08243 -0.00328887
0.656373 5.13822 -0.0491722
0.742029 5.05852 0.00998631
0.788394 5.00257 -0.0294838
0.818899 5.05573 -0.0954344
0.824592 5.08559 -0.129323
0.736351 5.00702 -0.174591
0.760011 5.2845 -0.188745
0.769407 5.27999 -0.197376
0.756863 5.30463 -0.181398
0.706966 5.27454 -0.127692
0.767651 5.33309 -0.0371064
0.886868 5.26668 -0.0624482
0.899057 5.27312 -0.131084
0.888273 5.27503 -0.153827
0.885293 5.25862 -0.148869
0.873713 5.22728 -0.145853
0.811615 5.29993 -0.200291
0.829077 5.25748 -0.194854
0.936939 5.8496 -0.158121
1.04256 5.89281 -0.0876716
1.02035 5.90102 -0.0897881
0.973496 5.82296 -0.0824388
1.0896 5.87311 -0.111167
1.04556 5.81471 -0.0863285
1.0394 5.79791 -0.0845521
1.10196 5.84629 -0.144958
1.1077 5.86361 -0.142626
1.05995 5.72834 -0.129801
1.08895 5.883 -0.225757
1.02531 5.88615 -0.244097
1.04396 6.09206 -0.22211
1.02959 6.08564 -0.159257
1.03639 6.09879 -0.175195
1.06641 6.12463 -0.135815
1.11078 6.1434 -0.114822
1.18412 6.07763 -0.161083
1.17263 6.04947 -0.143751
1.15634 6.01608 -0.213426
1.12662 6.0751 -0.253413
1.16093 6.1467 -0.257051
1.14037 6.06993 -0.252094
1.11358 6.28982 -0.183862
1.15497 6.39321 -0.18282
1.16287 6.35839 -0.155641
1.1883 6.4165 -0.159087
1.19728 6.29632 -0.129252
1.2347 6.36661 -0.136034
1.2266 6.19677 -0.167388
1.25312 6.27175 -0.167425
1.25737 6.31493 -0.242025
1.26472 6.29653 -0.225257
1.24018 6.25429 -0.232438
1.29212 6.6345 -0.284948
1.22198 6.5496 -0.234735
1.27385 6.6496 -0.190818
1.2294 6.47662 -0.150099
1.33036 6.49323 -0.182946
1.36647 6.61443 -0.188605
1.37086 6.61241 -0.192618
1.3533 6.62049 -0.176567
1.35287 6.53899 -0.22616
1.39545 6.65734 -0.235932
1.3659 6.57113 -0.244541
1.37146 6.58904 -0.236584
1.37146 6.58904 -0.236584
1.32525 6.54518 -0.276859
1.22065 6.43042 -0.277036
1.31172 6.66498 -0.293289
1.35275 6.64967 -0.289366
1.33387 6.61835 -0.287604
1.38045 6.95066 -0.237995
1.38743 6.96664 -0.244913
1.34233 6.8481 -0.261971
1.30923 6.76501 -0.2587
1.3625 6.88242 -0.217929
1.30876 6.76882 -0.216245
1.44093 6.9309 -0.196488
1.42528 6.8988 -0.193338
1.43558 6.9329 -0.197
1.37146 6.82407 -0.186872
1.43076 6.83903 -0.195964
1.42854 6.82056 -0.197901
1.44759 6.84444 -0.284218
1.39624 6.84329 -0.303661
1.37908 6.83064 -0.303637
1.48296 7.13495 -0.220595
1.50078 7.14519 -0.219059
1.51666 7.17277 -0.221538
1.54412 7.07505 -0.252291
1.55616 7.15008 -0.307168
1.54626 7.08795 -0.289206
1.56169 7.11619 -0.285299
1.49813 6.93893 -0.273052
1.51485 7.16444 -0.32228
1.51727 7.16354 -0.322049
1.57414 7.4106 -0.320351
1.58056 7.40746 -0.326259
1.56738 7.37932 -0.322101
1.53473 7.32905 -0.279878
1.59431 7.39501 -0.249465
1.63702 7.37782 -0.260107
1.62195 7.36778 -0.249379
1.58058 7.17987 -0.24888
1.6364 7.3859 -0.332405
1.63934 7.38527 -0.328874
1.6459 7.36798 -0.313345
1.62625 7.5626 -0.309312
1.65828 7.64346 -0.330614
1.67117 7.67528 -0.341946
1.67426 7.64343 -0.297372
1.69341 7.60029 -0.283024
1.69958 7.63571 -0.289359
1.68994 7.639 -0.290235
1.74131 7.65567 -0.310964
1.69845 7.559 -0.287055
1.7273 7.66301 -0.298006
1.71712 7.56764 -0.311453
1.74571 7.65342 -0.315033
1.68816 7.48453 -0.293819
1.72718 7.61509 -0.351826
1.70595 7.65717 -0.374113
1.75401 7.86448 -0.401237
1.74947 7.82758 -0.401762
1.726 7.76187 -0.38944
1.7248 7.76255 -0.388326
1.76866 7.94029 -0.383189
1.74443 7.8736 -0.375307
1.76576 7.90796 -0.360072
1.71716 7.79366 -0.341845
1.77882 7.86903 -0.33998
1.7833 7.77089 -0.338348
1.76272 7.74963 -0.386162
1.79878 7.8487 -0.402176
1.72541 7.74288 -0.389557
1.7405 7.77465 -0.395425
1.75475 7.82502 -0.404959
1.76984 7.85679 -0.410827
1.80078 8.02495 -0.419608
1.86753 8.17206 -0.422844
1.8635 8.1722 -0.427266
1.82737 8.0865 -0.409536
1.83471 8.11523 -0.420604
1.88221 8.15183 -0.415876
1.86431 8.1096 -0.40384
1.87305 8.05513 -0.40435
1.87359 8.07205 -0.404545
1.88076 8.06465 -0.424597
1.84103 8.05363 -0.453425
1.92992 8.36326 -0.523521
1.92861 8.37226 -0.492603
1.90333 8.31532 -0.481178
1.93241 8.24359 -0.457701
1.95023 8.30146 -0.474751
1.97413 8.37284 -0.497593
1.94376 8.2659 -0.4874
1.96157 8.32502 -0.499854
1.95713 8.31114 -0.493502
1.94478 8.29458 -0.506389
1.93567 8.32748 -0.522176
1.95734 8.36865 -0.532905
1.95128 8.35457 -0.529231
2.03176 8.67387 -0.589817
1.97951 8.52474 -0.558579
2.02656 8.65922 -0.578137
2.03516 8.64101 -0.562252
2.01875 8.51718 -0.537862
2.04788 8.63639 -0.563488
1.99871 8.47915 -0.55944
1.98104 8.48432 -0.562226
2.00332 8.53204 -0.574119
2.02943 8.59681 -0.590284
-0.598135 4.6494 -0.642685
-0.604091 4.69556 -0.664361
-0.476937 4.74939 -0.616477
-0.443847 4.55823 -0.740783
-0.432629 4.63063 -0.734245
-0.476229 4.71849 -0.789091
-0.590711 4.55965 -0.714194
-0.596233 4.59702 -0.704902
-0.569035 4.9191 -0.671863
-0.547504 4.93725 -0.671463
-0.423517 4.88461 -0.755729
-0.45994 4.97942 -0.839527
-0.458711 4.91463 -0.826507
-0.445091 4.97038 -0.812944
-0.583576 4.78362 -0.78619
-0.592203 4.81641 -0.790144
-0.595925 4.95966 -0.828496
-0.595416 5.28959 -0.796036
-0.603163 5.23556 -0.796031
-0.609745 5.23236 -0.806597
-0.619342 5.16067 -0.805415
-0.620028 5.19384 -0.814811
-0.616942 5.04456 -0.772531
-0.618657 5.1275 -0.79602
-0.618657 5.1275 -0.79602
-0.581352 5.17766 -0.750143
-0.564747 5.17938 -0.746266
-0.5151 5.21688 -0.747299
-0.434673 5.06096 -0.804938
-0.467378 5.02623 -0.86014
-0.452507 5.25522 -0.874754
-0.535992 5.03478 -0.883283
-0.501406 5.22247 -0.92112
-0.578981 5.15529 -0.894338
-0.588368 5.23949 -0.912308
-0.610775 5.19722 -0.868131
-0.608678 5.19506 -0.876154
-0.628432 6.09467 -1.0683
-0.633459 5.87164 -1.01308
-0.589227 6.07581 -1.01961
-0.597698 5.9813 -0.992181
-0.520367 6.07521 -1.0285
-0.497005 6.05215 -1.05138
-0.51222 5.96542 -1.11352
-0.503128 6.05032 -1.11563
-0.560169 5.95995 -1.12723
-0.539487 6.07274 -1.1524
-0.600958 6.08909 -1.14909
-0.596627 6.0413 -1.13765
-0.624159 6.06329 -1.11801
-0.616394 6.35178 -1.11892
-0.621343 6.33387 -1.12255
-0.626292 6.31595 -1.12618
-0.52153 6.28346 -1.1937
-0.511476 6.23935 -1.16781
-0.564926 6.26201 -1.20691
-0.5793 6.21344 -1.19599
-0.632315 6.33917 -1.16667
-0.631141 6.50533 -1.18225
-0.630978 6.54153 -1.19078
-0.63404 6.54046 -1.19579
-0.604348 6.49619 -1.14234
-0.524778 6.53045 -1.16291
-0.537579 6.53189 -1.15539
-0.530493 6.63821 -1.18768
-0.527922 6.49273 -1.24265
-0.523177 6.54971 -1.24456
-0.567805 6.61707 -1.28581
-0.583373 6.488 -1.26035
-0.581021 6.50607 -1.26578
-0.613336 6.87388 -1.23422
-0.623242 6.85311 -1.24674
-0.564696 6.71416 -1.18353
-0.573541 6.84046 -1.21122
-0.53824 6.92852 -1.24419
-0.56381 6.91291 -1.22534
-0.562096 6.67776 -1.17756
-0.524547 6.81737 -1.23634
-0.620155 6.73137 -1.28659
-0.622113 6.76856 -1.29161
-0.626984 6.84667 -1.28242
-0.605849 7.17305 -1.27936
-0.618098 7.12234 -1.29064
-0.582857 7.06141 -1.25363
-0.568452 7.0939 -1.25522
-0.56372 7.19022 -1.27142
-0.532237 7.18027 -1.34522
-0.525421 7.14912 -1.33028
-0.526213 7.03501 -1.31891
-0.556126 7.07969 -1.35371
-0.601995 7.09706 -1.35002
-0.623848 7.0531 -1.31154
-0.620872 7.16672 -1.32781
-0.617694 7.14861 -1.33969
-0.619496 7.14955 -1.33259
-0.618045 7.1817 -1.33961
-0.610242 7.41451 -1.32988
-0.575651 7.30362 -1.2891
-0.548622 7.4486 -1.31585
-0.530161 7.36471 -1.32481
-0.529087 7.36417 -1.32905
-0.536753 7.40794 -1.37594
-0.608538 7.27769 -1.36473
-0.609508 7.3105 -1.3671
-0.615785 7.37915 -1.34841
-0.612618 7.44375 -1.36063
-0.609932 7.4424 -1.37122
-0.600851 7.59349 -1.34629
-0.597032 7.63108 -1.34665
-0.601522 7.74044 -1.37418
-0.570002 7.59527 -1.33013
-0.582049 7.72429 -1.3525
-0.546661 7.68644 -1.35073
-0.561289 7.53986 -1.32106
-0.529718 7.64607 -1.36977
-0.529383 7.55087 -1.37928
-0.544653 7.64072 -1.41262
-0.597903 7.62362 -1.40429
-0.591936 7.66016 -1.41161
-0.580969 7.69624 -1.42189
-0.602029 7.71735 -1.40614
-0.598973 7.94878 -1.40965
-0.599594 7.98651 -1.41794
-0.535961 7.81654 -1.37628
-0.555401 8.04682 -1.39965
-0.552402 8.00846 -1.39561
-0.528604 7.85121 -1.40663
-0.565037 7.96131 -1.45683
-0.55878 7.94235 -1.45286
-0.57517 7.99994 -1.45931
-0.595931 7.92575 -1.43558
-0.585305 8.11526 -1.41873
-0.582818 8.18232 -1.42786
-0.560234 8.26665 -1.43361
-0.572451 8.28313 -1.43937
-0.568691 8.24977 -1.43304
-0.544302 8.29908 -1.44461
-0.538096 8.24828 -1.44067
-0.532502 8.22957 -1.45188
-0.532913 8.2777 -1.47457
-0.531286 8.12689 -1.45297
-0.54765 8.24202 -1.48704
-0.551751 8.25874 -1.49013
-0.546475 8.14121 -1.47444
-0.574635 8.27621 -1.48971
-0.573914 8.17509 -1.47926
-0.588943 8.26229 -1.46815
-0.55748 8.43387 -1.4598
-0.553895 8.45066 -1.46158
-0.55573 8.48406 -1.46741
-0.569117 8.58411 -1.48688
-0.540022 8.54978 -1.48483
-0.535976 8.48242 -1.47719
-0.534844 8.48179 -1.48165
-0.535769 8.56598 -1.4908
-0.554655 8.57801 -1.5297
-0.546993 8.51093 -1.51961
-0.542325 8.56144 -1.52456
-0.542435 8.52783 -1.52051
-0.586105 8.41446 -1.47979
-0.579654 8.54756 -1.50526
-0.58022 8.54788 -1.50303
-0.569534 8.63876 -1.49635
-0.567568 8.75273 -1.51525
-0.544519 8.80994 -1.52075
-0.533821 8.8079 -1.53442
-0.535423 8.8063 -1.54623
-0.533689 8.84485 -1.54831
-0.557807 8.80517 -1.55669
-0.555933 8.82414 -1.55989
-0.569374 8.84526 -1.549
0.476624 4.81937 -0.0480008
0.577622 4.8551 0.0459074
0.561061 4.78585 0.0471506
0.557947 4.85533 0.0434337
0.537369 4.82086 0.0425092
0.637895 4.87086 0.0208656
0.674107 4.81569 -0.0681262
0.559942 4.74582 -0.148844
0.579618 4.74558 -0.14637
0.486047 5.09214 -0.0556574
0.486838 4.9208 -0.103866
0.489877 5.04208 -0.0188106
0.49444 5.00823 -0.0102823
0.48293 5.00801 -0.0250921
0.535424 4.95784 0.0356316
0.535424 4.95784 0.0356316
0.614924 4.99055 0.0339496
0.673585 4.95275 -0.0716711
0.671932 5.05495 -0.0646252
0.673357 5.1225 -0.0800828
0.672191 5.12277 -0.0707806
0.647962 5.13886 -0.118432
0.495121 5.28459 -0.0793914
0.496327 5.32013 -0.0799865
0.4942 5.15949 -0.103618
0.496168 5.26646 -0.0922484
0.536185 5.18004 0.0249519
0.538541 5.26873 0.0210747
0.657223 5.40777 -0.0147646
0.646957 5.42589 -0.00744212
0.623973 5.24941 0.016907
0.672637 5.19283 -0.0774731
0.672145 5.40578 -0.0820046
0.579998 5.35233 -0.152542
0.524002 5.30058 -0.129356
0.533997 5.38915 -0.136264
0.529006 6.24291 -0.0707229
0.564473 6.17522 -0.0220595
0.648401 6.20692 -0.0383093
0.659936 6.27165 -0.136395
0.600677 6.30641 -0.168042
0.547481 6.55026 -0.134922
0.558737 6.53311 -0.0600385
0.536162 6.44821 -0.0813826
0.57511 6.48199 -0.0381686
0.666801 6.37673 -0.060152
0.661515 6.37691 -0.0560491
0.653064 6.44318 -0.150962
0.658746 6.5293 -0.146149
0.596097 6.41006 -0.1698
0.598617 6.58302 -0.170843
0.604086 6.54824 -0.16988
0.59238 6.49671 -0.17095
0.618343 6.47855 -0.167535
0.579689 6.37599 -0.16683
0.590206 7.34248 -0.052032
0.611001 7.38885 -0.0154279
0.608356 7.37229 -0.0191696
0.665419 7.40124 -0.0016725
0.698858 7.45531 -0.0360151
0.697901 7.43807 -0.035402
0.700106 7.48918 -0.0322426
0.69224 7.30196 -0.0454933
0.654254 7.46527 -0.0940947
0.604561 7.39736 -0.0848912
0.614322 7.44871 -0.0827841
0.625414 7.62661 0.00977394
0.637906 7.76165 0.0304873
0.694126 7.70693 0.0250016
0.705013 7.64025 0.00125875
0.703978 7.62299 0.0012175
0.703885 7.6116 -0.0422774
0.671506 7.58318 -0.0741508
0.625269 7.71932 -0.0340274
0.663021 8.20667 0.0720241
0.658273 8.18828 0.0657056
0.68739 8.3182 0.102631
0.728821 8.35471 0.100196
0.733684 8.18597 0.0450147
0.738913 8.31876 0.0705661
0.691945 8.30711 0.0328821
0.679766 8.21169 0.0237587
0.676292 8.41335 0.0893712
0.695788 8.4601 0.116339
0.719172 8.49188 0.123495
0.740815 8.49181 0.11198
0.74428 8.62635 0.130041
0.73558 8.59251 0.131573
0.737617 8.54215 0.122224
0.749886 8.56008 0.108861
0.720781 8.63435 0.0793555
0.706963 8.60091 0.080378
0.707816 8.55077 0.0695034
0.715016 8.83345 0.135143
0.720272 8.88433 0.136479
0.737841 8.74424 0.150245
0.739864 8.82873 0.158689
0.744741 8.79444 0.156006
0.745787 8.82822 0.159413
0.734848 8.8969 0.164633
0.754943 8.72747 0.137585
0.763113 8.86215 0.152371
0.752866 8.79465 0.149735
0.766101 8.86316 0.142649
0.758742 8.84954 0.118731
0.766156 8.86482 0.129365
0.745021 8.71653 0.0937477
0.746052 8.73329 0.0961621
0.729695 8.85215 0.11442
0.725206 8.81861 0.110989
0.733139 8.83552 0.108314
0.743044 9.14638 0.17228
0.743044 9.14638 0.17228
0.74601 9.10581 0.183349
0.762231 9.20028 0.198123
0.779841 9.1615 0.186701
0.774693 9.16136 0.190675
0.782523 9.1626 0.176412
0.775522 9.04711 0.168594
0.777053 9.0874 0.157288
0.751648 9.20467 0.168799
0.748161 9.09053 0.148477
0.76121 9.20493 0.16142
-0.784073 5.95029 0.322946
-0.802395 5.8064 0.19956
-0.79495 5.90719 0.230757
-0.806971 5.90806 0.215291
-0.803248 5.95846 0.23089
-0.786496 5.92347 0.245236
-0.915805 5.91716 0.233972
-0.902551 5.90185 0.222318
-0.897673 5.86831 0.215658
-0.908611 5.88993 0.33305
-0.906207 5.88976 0.336143
-0.909922 5.92428 0.336498
-0.922602 5.75391 0.294511
-0.802755 5.86076 0.337639
-0.788149 6.07168 0.29477
-0.790349 6.08761 0.303663
-0.788947 6.10679 0.28376
-0.815415 6.12584 0.248906
-0.827771 6.17675 0.243123
-0.808728 6.15862 0.264237
-0.921868 6.14297 0.351303
-0.882762 6.04189 0.366897
-0.898009 6.05803 0.366309
-0.813195 6.09821 0.352913
-0.805142 6.18395 0.348973
-0.807214 6.34671 0.306852
-0.811748 6.39867 0.316528
-0.831865 6.38361 0.282981
-0.883976 6.4009 0.264398
-0.933342 6.40138 0.376497
-0.94165 6.40233 0.365879
-0.949237 6.49002 0.370191
-0.914601 6.33052 0.389392
-0.84075 6.441 0.387789
-0.904894 7.38198 0.48222
-0.894075 7.31441 0.473265
-0.922732 7.30041 0.451923
-0.964368 7.27873 0.458013
-0.956337 7.28079 0.451965
-0.982101 7.3227 0.490741
-0.97112 7.31026 0.541093
-0.917563 7.2425 0.544803
-0.930326 7.29153 0.554751
-0.93291 7.34081 0.565987
-0.897888 7.34677 0.550786
-0.900842 7.51596 0.577863
-0.909006 7.57476 0.554852
-0.938604 7.54554 0.522781
-0.930198 7.61152 0.544054
-0.9686 7.52586 0.521715
-0.9911 7.48102 0.552561
-0.972185 7.43962 0.580243
-0.970764 7.48749 0.598197
-0.937979 7.554 0.621492
-0.895036 7.41446 0.561636
-0.91729 7.54246 0.604707
-0.912622 7.51019 0.594605
-0.913011 7.57741 0.608152
-0.934815 7.80606 0.623978
-0.986004 7.88115 0.622069
-0.958693 7.79062 0.5968
-0.999812 7.84028 0.618157
-0.979559 7.71406 0.574794
-0.981556 7.7324 0.58033
-0.980412 7.75184 0.583558
-1.00933 7.85963 0.688005
-1.01433 7.86072 0.681731
-1.01308 7.86045 0.6833
-0.968321 7.78586 0.681426
-0.995656 8.20128 0.745605
-0.996622 8.19865 0.753904
-0.984408 8.1254 0.739728
-1.01349 8.15046 0.705855
-1.06799 8.20196 0.765081
-1.02926 7.96191 0.668374
-1.04934 8.07715 0.73323
-1.05812 8.18228 0.771335
-1.02771 8.18324 0.787149
-1.03356 8.16425 0.780991
-1.02315 8.03848 0.74614
-0.97578 8.04901 0.734877
-1.05382 8.44729 0.831314
-1.07442 8.41981 0.791601
-1.06894 8.43663 0.7981
-1.0638 8.38984 0.78228
-1.09509 8.46367 0.805785
-1.10426 8.41701 0.836947
-1.07831 8.43385 0.857707
-1.08964 8.41591 0.850864
-1.0934 8.59731 0.887895
-1.12246 8.69571 0.890791
-1.10757 8.64939 0.880293
-1.1274 8.63293 0.862142
-1.11998 8.50305 0.831592
-1.15349 8.65618 0.881992
-1.14568 8.6765 0.879001
-1.15515 8.6536 0.889125
-1.12348 8.60269 0.905779
-1.13262 8.63322 0.914386
-1.0981 8.54306 0.88894
-1.17378 8.93341 0.983196
-1.15773 8.86204 0.966837
-1.12491 8.72132 0.927911
-1.17352 8.90251 0.953974
-1.17693 8.93641 0.97118
-1.18892 8.84364 0.939553
-1.20872 8.94947 0.971946
-1.21152 8.92605 0.981415
-1.20439 8.90653 0.984784
-1.19953 8.96002 1.00923
-1.19126 8.92486 0.999172
0.79683 5.73089 0.778727
0.795081 5.79669 0.794978
0.80144 5.85759 0.828016
0.768721 5.88463 0.796386
0.718422 5.88787 0.787201
0.726072 5.67887 0.717646
0.659651 5.8252 0.824339
0.661843 5.81096 0.812491
0.658718 5.77971 0.860311
0.689968 5.76792 0.900086
0.68273 5.76873 0.897559
0.691387 5.68577 0.879297
0.781155 5.81736 0.908015
0.76362 5.83169 0.920301
0.803156 5.74516 0.851588
0.807278 5.73181 0.836462
0.79889 5.77478 0.871386
0.798315 5.8399 0.890075
0.791086 5.97499 0.840787
0.78768 6.11951 0.877603
0.792208 6.11677 0.886977
0.787938 6.02438 0.848893
0.779183 6.1212 0.87204
0.707787 6.01307 0.831705
0.727316 6.01533 0.822933
0.668145 6.09637 0.903503
0.673872 6.0648 0.95341
0.670741 6.01795 0.936717
0.659208 6.04117 0.916244
0.667949 6.11713 0.951356
0.75485 6.07095 0.988605
0.806572 6.11893 0.938985
0.798518 6.2777 0.950483
0.743194 6.2571 0.899505
0.731747 6.32402 0.918053
0.677269 6.23149 0.928871
0.671895 6.25051 0.988271
0.775173 6.22213 1.01973
0.784049 6.28993 1.03385
0.791302 6.88723 1.11973
0.794993 6.84958 1.11648
0.760623 6.89332 1.09886
0.708205 6.89118 1.10771
0.691579 6.86626 1.12858
0.693791 6.79793 1.09749
0.683176 6.73449 1.11745
0.730321 6.86468 1.20199
0.797487 6.83791 1.15774
0.755588 7.15543 1.1744
0.748599 7.18762 1.1812
0.753449 7.21851 1.19214
0.765288 7.21722 1.19628
0.71171 7.21572 1.20329
0.713699 7.20026 1.19773
0.736276 7.18723 1.18294
0.733988 7.18696 1.18397
0.710944 7.09939 1.25399
0.766569 7.12928 1.26677
0.796337 7.17107 1.23806
0.782951 7.29289 1.22833
0.790632 7.36569 1.26842
0.706629 7.36768 1.2683
0.711806 7.38714 1.26109
0.708053 7.42012 1.32051
0.705631 7.35733 1.30187
0.718199 7.31961 1.31376
0.767893 7.41149 1.34323
0.760191 7.44183 1.3555
0.756225 7.31649 1.32206
0.794358 7.3269 1.28459
0.794197 7.66816 1.36728
0.792547 7.72328 1.37973
0.793913 7.63255 1.3562
0.798915 7.73595 1.39782
0.757563 7.64287 1.33292
0.779187 7.74482 1.37734
0.725295 7.55266 1.3117
0.73056 7.64038 1.34364
0.745146 7.76398 1.3851
0.725515 7.65671 1.35423
0.715489 7.64663 1.38385
0.745776 7.70421 1.43821
0.740002 7.66985 1.42528
0.73134 7.61831 1.40589
0.744563 7.65129 1.42124
0.747826 7.73925 1.44993
0.762795 7.61421 1.41355
0.76588 7.68412 1.43653
0.802884 7.71381 1.40377
0.813399 8.00982 1.5074
0.81403 7.95539 1.49356
0.805979 8.01566 1.49535
0.748269 7.96423 1.48607
0.741885 7.82778 1.47781
0.7665 7.99614 1.54889
0.807837 7.99458 1.54363
0.806618 7.89617 1.49371
0.827287 8.17348 1.58357
0.838346 8.24166 1.62714
0.826493 8.12639 1.56888
0.825187 8.22234 1.59479
0.81981 8.25362 1.60656
0.814236 8.13549 1.55147
0.793651 8.16895 1.56156
0.800159 8.22725 1.59029
0.777418 8.22039 1.61042
0.768387 8.08925 1.58476
0.781449 8.24209 1.64008
0.820374 8.42845 1.69613
0.799925 8.39179 1.70178
0.81284 8.47867 1.74456
0.839057 8.36348 1.7132
0.841687 8.37821 1.71966
0.85555 8.4407 1.73732
0.853699 8.41279 1.72037
0.863678 8.74706 1.85443
0.855984 8.63043 1.8425
0.866056 8.63115 1.83857
0.872741 8.73129 1.88647
0.884519 8.7349 1.87591
1.10316 6.76358 0.923195
1.1585 6.88264 0.918104
1.1561 6.8833 0.919077
1.10456 6.8637 0.957923
1.1229 6.89234 0.936606
1.09172 6.83355 0.9756
1.12102 6.7075 1.02788
1.19343 6.78868 0.980093
1.10341 6.66287 0.910057
1.17529 6.878 0.921405
1.18082 6.84288 0.926953
1.19354 7.11962 0.935579
1.18301 7.07279 1.01205
1.15201 6.96637 1.01314
1.15644 6.98157 1.01299
1.16104 7.01316 1.01074
1.26212 7.05121 0.97626
1.2567 7.05281 0.957146
1.24551 7.1382 0.927842
1.29564 7.39919 0.934166
1.25921 7.37471 0.955935
1.26088 7.37428 0.951983
1.22254 7.23034 0.940854
1.22303 7.21252 1.01051
1.23504 7.26071 1.0093
1.23918 7.15651 1.02282
1.24359 7.17246 1.0226
1.27393 7.26704 1.01974
1.3198 7.32365 0.944662
1.24998 7.18851 0.925231
1.30162 7.34597 0.933198
1.3224 7.52502 0.941238
1.32763 7.58067 0.946804
1.34129 7.57692 0.941255
1.33547 7.63542 0.96284
1.32271 7.60051 0.987634
1.31547 7.58357 0.982089
1.3535 7.62962 1.01261
1.40135 7.65434 1.00908
1.36714 7.47389 0.985994
1.37127 7.58757 0.941732
1.44534 7.95235 0.95538
1.42321 7.82317 0.945229
1.39108 7.7148 1.01805
1.47264 7.90473 1.00895
1.45647 7.91054 0.950961
1.45308 7.89213 0.951044
1.46854 7.9264 0.954832
1.50185 8.17585 1.01043
1.53473 8.14936 1.01261
1.53265 8.1161 1.00441
1.54494 8.16364 1.00614
1.55403 8.19513 1.00517
1.55964 8.19393 0.989616
1.55868 8.19427 0.987025
1.5042 8.02299 0.962534
1.58407 8.45965 0.98947
1.5735 8.42856 0.990676
1.57134 8.41231 0.983988
1.5299 8.27007 1.01045
1.55802 8.36428 1.0106
1.58731 8.45807 1.01393
1.60051 8.45413 1.01995
1.59368 8.38797 1.01755
1.58939 8.37216 1.01735
1.57841 8.29029 1.00953
1.57752 8.29049 1.01162
1.60737 8.41922 0.976915
1.67497 8.70274 0.984589
1.65935 8.70689 0.996859
1.62391 8.58092 1.01471
1.66297 8.62778 1.01905
1.69574 8.75404 1.02127
1.68102 8.70012 1.02059
1.70357 8.73282 1.00499
1.70144 8.73357 0.999239
1.66461 8.62817 0.985321
1.68316 8.68091 0.989173
-1.11521 6.79881 -1.05402
-1.10657 6.78386 -1.05193
-1.05249 6.80638 -1.11576
-1.04541 6.77547 -1.0994
-1.04008 6.63594 -1.14078
-1.05875 6.73378 -1.1449
-1.08094 6.83045 -1.1529
-1.07317 6.76366 -1.15532
-1.08845 6.7264 -1.15331
-1.13915 6.73458 -1.13037
-1.13738 6.68936 -1.07542
-1.164 6.98704 -1.07733
-1.14486 6.90881 -1.06768
-1.0789 6.91659 -1.13454
-1.10659 7.02843 -1.12329
-1.12781 7.0527 -1.16672
-1.17041 7.04195 -1.17989
-1.14472 7.01456 -1.17674
-1.19705 7.05415 -1.16613
-1.20407 7.05327 -1.1595
-1.206 7.21388 -1.10433
-1.15987 7.25261 -1.16659
-1.18448 7.35299 -1.15429
-1.16345 7.16262 -1.18677
-1.18501 7.29721 -1.18823
-1.20797 7.25643 -1.19708
-1.24782 7.28401 -1.18322
-1.25115 7.30057 -1.18474
-1.25929 7.30321 -1.1405
-1.26072 7.30274 -1.14207
-1.23609 7.18746 -1.12803
-1.28421 7.61927 -1.15111
-1.26501 7.45157 -1.13273
-1.24727 7.62345 -1.18959
-1.25206 7.64264 -1.17984
-1.27867 7.59408 -1.22439
-1.31004 7.55314 -1.17918
-1.31696 7.58923 -1.19009
-1.29475 7.47836 -1.18778
-1.29129 7.46032 -1.18232
-1.33024 7.89634 -1.18142
-1.30819 7.86148 -1.19066
-1.30459 7.86192 -1.19405
-1.32176 7.95146 -1.23035
-1.30149 7.86098 -1.21114
-1.30188 7.86166 -1.2029
-1.30595 7.87978 -1.20641
-1.30164 7.86125 -1.20785
-1.28106 7.77022 -1.19523
-1.31247 7.89545 -1.23076
-1.30197 7.85955 -1.22514
-1.36338 7.88409 -1.23865
-1.35123 7.86669 -1.24515
-1.33919 7.70076 -1.18677
-1.37057 7.86548 -1.21493
-1.40311 8.19065 -1.21456
-1.40037 8.19121 -1.21448
-1.38782 8.20982 -1.22465
-1.40604 8.18511 -1.26914
-1.3881 8.12135 -1.26434
-1.40655 8.13464 -1.263
-1.42023 8.18279 -1.26266
-1.4005 8.0214 -1.21545
-1.42112 8.13408 -1.23633
-1.44326 8.38409 -1.23568
-1.43203 8.3696 -1.23369
-1.40994 8.32279 -1.23854
-1.42334 8.40308 -1.25833
-1.41275 8.35509 -1.25016
-1.43736 8.44936 -1.27772
-1.44232 8.41378 -1.28483
-1.4514 8.44564 -1.28719
-1.44822 8.34537 -1.27762
-1.44022 8.31314 -1.27691
-1.46003 8.345 -1.255
-1.47584 8.44367 -1.25377
-1.4655 8.52093 -1.25022
-1.47324 8.55758 -1.25416
-1.51454 8.74029 -1.27398
-1.49859 8.68622 -1.26793
-1.50079 8.66663 -1.26614
-1.48309 8.65057 -1.27046
-1.49846 8.7051 -1.27283
-1.47449 8.63274 -1.27378
-1.48256 8.66927 -1.27826
-1.51593 8.75601 -1.31002
-1.52032 8.69806 -1.30081
-1.50123 8.62491 -1.29964
-1.48365 8.53272 -1.29229
-1.49836 8.55105 -1.26956
-1.51901 8.66153 -1.28112
-1.53289 8.73538 -1.28648
-1.50409 8.62746 -1.26502
-1.53 8.75591 -1.27943
-0.635074 6.78984 -1.27822
-0.608551 6.83549 -1.26247
-0.599223 6.80581 -1.24701
-0.597452 6.77493 -1.2331
-0.530551 6.69537 -1.21391
-0.553754 6.8363 -1.26943
-0.556881 6.89765 -1.29823
-0.5411 6.87521 -1.30988
-0.540979 6.87617 -1.35045
-0.589959 6.85936 -1.38147
-0.606603 6.82885 -1.36379
-0.598019 6.76545 -1.3407
-0.599746 6.85856 -1.38174
-0.620857 7.15497 -1.4051
-0.623354 6.9567 -1.31931
-0.574229 7.10899 -1.39339
-0.572212 7.10863 -1.39455
-0.580982 7.09535 -1.38201
-0.552156 7.03661 -1.39699
-0.558573 7.08563 -1.40811
-0.564559 6.98884 -1.42177
-0.564725 7.05342 -1.43978
-0.562523 7.13588 -1.45865
-0.590647 6.99881 -1.43638
-0.613637 7.10345 -1.48362
-0.609613 7.04221 -1.4585
-0.633809 7.0768 -1.4583
-0.645022 7.03727 -1.42238
-0.646388 7.05341 -1.42667
-0.63991 6.95917 -1.3946
-0.63991 6.95917 -1.3946
-0.654512 7.28755 -1.48657
-0.665679 7.37813 -1.53775
-0.663817 7.36303 -1.52922
-0.657553 7.23605 -1.47405
-0.631169 7.23294 -1.44172
-0.576711 7.23166 -1.45346
-0.588018 7.28028 -1.47035
-0.593036 7.35886 -1.50646
-0.580365 7.29446 -1.48256
-0.583533 7.31056 -1.48853
-0.56227 7.17102 -1.46488
-0.590315 7.30179 -1.55174
-0.58257 7.37499 -1.55855
-0.584066 7.32319 -1.54691
-0.58147 7.29125 -1.5337
-0.663672 7.37028 -1.55635
-0.673091 7.51711 -1.59807
-0.651167 7.49331 -1.55951
-0.612785 7.58151 -1.60404
-0.618851 7.63435 -1.62621
-0.595294 7.51991 -1.60421
-0.597298 7.5382 -1.61002
-0.601703 7.60597 -1.64659
-0.611332 7.66627 -1.65067
-0.607993 7.50478 -1.63757
-0.63443 7.55389 -1.66525
-0.630798 7.60829 -1.68547
-0.655727 7.57217 -1.66792
-0.675168 7.58098 -1.64404
-0.67718 7.63276 -1.66945
-0.645492 7.7532 -1.6688
-0.662734 7.94395 -1.75448
-0.64037 7.9259 -1.75597
-0.645296 7.86382 -1.72206
-0.643919 7.86358 -1.72285
-0.628353 7.88772 -1.75837
-0.617961 7.73318 -1.6757
-0.610288 7.70597 -1.69624
-0.614643 7.75419 -1.71647
-0.63681 7.80857 -1.76419
-0.683608 7.68977 -1.67744
-0.685255 7.73682 -1.70087
-0.691313 7.8499 -1.74734
-0.677486 8.09768 -1.82355
-0.662846 8.07009 -1.81218
-0.660047 7.98655 -1.77284
-0.647005 8.07905 -1.83333
-0.639496 7.98258 -1.78576
-0.641205 8.01405 -1.82993
-0.679303 8.13303 -1.89844
-0.703371 8.13931 -1.87934
-0.703258 8.26303 -1.90301
-0.689658 8.37939 -1.94656
-0.67007 8.3106 -1.95467
-0.659275 8.22764 -1.91523
-0.690545 8.33341 -1.97653
-0.668902 8.19242 -1.91795
-0.702277 8.17839 -1.9059
-0.700541 8.36173 -1.98702
-0.712128 8.43861 -1.97736
-0.725124 8.59623 -2.05247
-0.717706 8.58342 -2.03894
-0.704023 8.64803 -2.06844
-0.707259 8.63281 -2.05886
-0.699972 8.5054 -2.00138
-0.707076 8.62008 -2.08928
-0.696577 8.52335 -2.04987
-0.724675 8.5433 -2.04283
-0.72715 8.57674 -2.05329
0.573392 7.12435 -0.116816
0.583519 7.1977 -0.0989618
0.64563 7.11057 -0.0677073
0.627353 7.05879 -0.0572238
0.676388 7.17705 -0.10082
0.66457 7.14424 -0.0798824
0.665867 7.12636 -0.079685
0.682727 7.1714 -0.144712
0.596885 6.99324 -0.161151
0.599616 7.06361 -0.168711
0.640302 7.185 -0.188242
0.578752 7.13797 -0.149541
0.613368 7.45608 -0.121208
0.597846 7.38673 -0.120517
0.65607 7.45532 -0.117644
0.643047 7.43881 -0.112961
0.632885 7.35349 -0.0991859
0.624688 7.25091 -0.0833567
0.664808 7.26586 -0.0946041
0.665078 7.28301 -0.0970498
0.680555 7.20455 -0.162655
0.663037 7.42692 -0.203995
0.658099 7.39222 -0.203259
0.656399 7.40933 -0.206516
0.61655 7.32416 -0.198039
0.594613 7.43083 -0.187991
0.582718 7.36387 -0.167294
0.584967 7.38076 -0.171436
0.624271 7.74205 -0.161138
0.610401 7.72344 -0.167787
0.660846 7.75926 -0.160081
0.638154 7.6169 -0.136503
0.642621 7.61667 -0.137285
0.670938 7.63296 -0.146317
0.688415 7.69812 -0.205463
0.687273 7.73307 -0.218402
0.690088 7.73487 -0.202862
0.669072 7.73141 -0.236855
0.680709 7.75 -0.230972
0.633426 7.73193 -0.241954
0.640923 7.69544 -0.239666
0.603436 7.66343 -0.212355
0.613397 7.73401 -0.230161
0.628102 8.1915 -0.23699
0.628284 8.2101 -0.244471
0.659057 8.36493 -0.239387
0.654996 8.30755 -0.232752
0.682814 8.21042 -0.221938
0.677226 8.2491 -0.225742
0.685891 8.30601 -0.234411
0.672253 8.30689 -0.232042
0.69454 8.36221 -0.249457
0.701874 8.22574 -0.250725
0.686138 8.29909 -0.295253
0.667705 8.56888 -0.267591
0.707699 8.46307 -0.279827
0.70321 8.52814 -0.311205
0.686345 8.59527 -0.329874
0.654274 8.46204 -0.311003
0.673489 8.90397 -0.327268
0.677814 8.68664 -0.28032
0.678744 8.70345 -0.282498
0.704141 8.78618 -0.29613
0.704651 8.76927 -0.294201
0.704964 8.83675 -0.302323
0.697393 8.85414 -0.303028
0.717013 8.81649 -0.325685
0.704873 8.89937 -0.354971
0.696616 8.86574 -0.353572
0.675343 8.81663 -0.343233
0.678799 8.85011 -0.348267
0.688744 9.13147 -0.351812
0.694438 9.22683 -0.366026
0.710723 9.13188 -0.338428
0.723271 9.09184 -0.343365
0.727404 9.2068 -0.357245
0.724013 9.14959 -0.348417
0.725285 9.20723 -0.354225
0.730362 9.22485 -0.368508
0.705552 9.16639 -0.380268
-0.920202 7.0157 0.446301
-0.917486 6.96318 0.448093
-0.861819 6.9829 0.379411
-0.863178 6.96497 0.360037
-0.891702 6.82242 0.331137
-0.896921 7.01541 0.337109
-0.933571 6.97819 0.336286
-0.928837 6.99601 0.335566
-0.974874 6.95885 0.375419
-0.965318 7.04795 0.424658
-0.962395 7.03058 0.426788
-0.919226 7.36063 0.431783
-0.884562 7.20774 0.413644
-0.893967 7.31027 0.413588
-0.877992 7.24228 0.40082
-0.885213 7.2763 0.406193
-0.90508 7.13673 0.337189
-0.906574 7.29135 0.344054
-0.934309 7.28964 0.335198
-0.984482 7.35659 0.409235
-0.970019 7.30608 0.422251
-0.96935 7.23741 0.422456
-0.948962 7.52047 0.429348
-0.950024 7.62806 0.42514
-0.909564 7.6116 0.368266
-0.933476 7.55594 0.337269
-0.919145 7.64675 0.352748
-0.967894 7.46424 0.33913
-0.97844 7.55351 0.34508
-0.994609 7.55319 0.38764
-0.972077 7.64473 0.422593
-0.970079 8.11879 0.409624
-0.962982 8.1581 0.405996
-0.945128 8.13934 0.382605
-0.953897 8.2557 0.378972
-0.950818 8.21693 0.381328
-0.959934 8.15759 0.347615
-0.994908 8.25297 0.339886
-0.979299 8.13691 0.338056
-0.972442 8.13728 0.337112
-1.01989 8.21312 0.383845
-0.980896 8.39383 0.400989
-0.987543 8.53045 0.395751
-0.974142 8.39413 0.393788
-0.973929 8.49658 0.361162
-0.973333 8.42799 0.351925
-0.967342 8.39408 0.354589
-0.990382 8.40977 0.33933
-0.992245 8.39254 0.339571
-1.03001 8.44208 0.361644
-1.02508 8.35694 0.383609
-1.01201 8.39209 0.399002
-1.00961 8.46077 0.401344
-1.02236 8.52848 0.392183
-1.01357 8.7688 0.39157
-0.996482 8.75251 0.382162
-0.990632 8.73555 0.366598
-0.996442 8.70079 0.349533
-1.0065 8.70015 0.341894
-1.04292 8.80117 0.366013
-1.04099 8.76707 0.371451
-1.0172 8.59734 0.396648
-1.01815 8.59728 0.395925
-1.03696 8.80168 0.383288
-1.01956 8.9367 0.386448
-1.02423 8.99488 0.385061
-1.02898 9.11148 0.381655
-1.03265 9.11128 0.382161
-1.02441 9.09224 0.381041
-1.00168 8.89857 0.371509
-1.03159 9.13043 0.345817
-1.01753 8.99487 0.349356
-1.01807 9.03383 0.350988
-1.04219 9.11037 0.346636
-1.02229 8.91663 0.344128
-1.04512 8.85709 0.359957
-1.04982 9.12948 0.350977
-1.04882 8.99341 0.374636
-1.04997 9.01279 0.371499
-1.036 8.99424 0.386021
1.80485 7.89006 -0.356116
1.7951 7.91181 -0.348846
1.75231 7.71426 -0.303431
1.75734 7.72976 -0.302334
1.76942 7.72764 -0.35502
1.8188 7.88368 -0.354354
1.85304 8.02519 -0.34195
1.86458 8.03745 -0.342217
1.88361 8.11486 -0.323168
1.87953 8.09964 -0.329087
1.86877 8.07005 -0.336176
1.84112 8.02827 -0.305864
1.89004 8.10977 -0.288286
1.87122 8.08367 -0.293103
1.84747 8.02466 -0.293907
1.92216 8.1471 -0.27972
1.92047 8.13055 -0.281743
1.93616 8.10733 -0.301848
1.92401 8.09473 -0.291814
1.90876 8.05173 -0.33057
1.84716 7.95866 -0.350795
1.90843 8.08718 -0.337638
2.00289 8.33192 -0.318718
2.01837 8.36128 -0.316752
1.94715 8.1938 -0.331675
1.94869 8.26427 -0.304394
1.93717 8.23344 -0.31123
1.97916 8.32346 -0.3043
1.98783 8.3379 -0.306216
1.96605 8.29315 -0.308226
1.96408 8.29333 -0.297016
1.98992 8.31686 -0.276413
2.01723 8.39577 -0.277648
2.02139 8.33905 -0.274632
2.02569 8.3733 -0.270605
2.00519 8.30992 -0.275138
2.02008 8.30418 -0.290211
2.04606 8.36516 -0.286568
2.04182 8.36657 -0.27881
1.96637 8.18433 -0.318533
1.99863 8.26071 -0.314928
2.03842 8.35158 -0.305858
2.05981 8.49854 -0.289627
2.06886 8.51474 -0.290788
2.10673 8.59819 -0.283048
2.08531 8.54671 -0.274693
2.16911 8.65016 -0.271064
2.13561 8.58418 -0.266724
2.07283 8.4329 -0.302186
2.11691 8.53366 -0.292981
2.13223 8.56679 -0.287125
2.17016 8.64989 -0.274157
2.13473 8.60669 -0.2973
2.15376 8.63819 -0.291958
-1.01526 8.01514 0.677572
-1.00756 8.08175 0.689477
-1.008 8.06526 0.685025
-0.980697 8.19977 0.697031
-1.01329 8.04408 0.707423
-1.00675 8.112 0.712876
-0.955335 8.13573 0.749705
-0.936837 8.14146 0.711627
-0.935872 8.15662 0.722909
-0.980743 8.32839 0.73536
-0.972932 8.37747 0.741972
-0.961381 8.40039 0.795641
-0.944382 8.44846 0.803813
-0.932215 8.33424 0.77407
-0.920215 8.42078 0.76039
-0.923129 8.37189 0.750766
-0.911406 8.67685 0.802534
-0.917023 8.48794 0.771305
-0.949852 8.52739 0.764082
-0.937238 8.64599 0.788723
-0.938589 8.68011 0.79662
-0.948231 8.70963 0.832297
-0.947629 8.56925 0.823485
-0.926714 8.65348 0.838684
-0.951554 8.5006 0.812647
-0.910725 8.67092 0.833643
-0.906824 8.65437 0.825663
-0.912565 8.72164 0.847806
-0.910308 8.70491 0.841455
-0.902846 8.70851 0.819293
-0.889692 8.97251 0.863899
-0.895385 8.83968 0.840512
-0.910541 8.97552 0.856684
-0.917393 9.01238 0.872662
-0.911358 8.9944 0.861205
-0.927183 8.82495 0.827628
-0.935752 8.84035 0.853836
-0.92673 8.93525 0.868345
-0.913865 9.00794 0.894731
-0.93748 8.80126 0.853253
-0.93514 8.83935 0.85888
-0.899381 9.00596 0.899145
-0.902075 9.00617 0.899173
-0.92186 8.81716 0.86667
-0.921315 8.85523 0.873205
-0.885387 8.98929 0.877397
-0.884207 9.00839 0.879951
-0.888914 8.93251 0.86708
0.774689 7.95045 1.45899
0.767807 7.99823 1.47548
0.765321 7.95484 1.42965
0.772396 7.93781 1.43293
0.720463 7.93362 1.42642
0.735117 7.90363 1.41098
0.728673 7.96921 1.42427
0.731895 7.93642 1.41763
0.703679 8.01002 1.46861
0.71842 7.86544 1.42256
0.72724 7.97439 1.48895
0.782083 7.86575 1.45688
0.76363 7.99668 1.4816
0.696388 8.08972 1.48767
0.691922 8.15581 1.49103
0.712235 8.0558 1.49853
0.70235 8.15279 1.51341
0.734312 8.13889 1.51569
0.739576 8.09051 1.5078
0.710289 8.47365 1.55763
0.724602 8.35621 1.53614
0.703006 8.49427 1.53672
0.720013 8.2939 1.49043
0.67214 8.44003 1.52793
0.670688 8.45684 1.53117
0.671018 8.52557 1.5394
0.661084 8.52145 1.55628
0.665841 8.48589 1.56151
0.712279 8.30075 1.54457
0.702291 8.45384 1.56543
0.694558 8.61747 1.57151
0.674076 8.78416 1.60549
0.685194 8.69111 1.58889
0.678045 8.67498 1.56673
0.653575 8.82281 1.59523
0.654624 8.748 1.57952
0.654039 8.59299 1.57608
0.634795 8.81723 1.61511
0.646419 8.77846 1.621
0.640459 8.77922 1.61349
0.640316 8.79771 1.61867
0.65289 8.83537 1.63253
0.660902 8.81773 1.62715
0.685755 8.55548 1.58646
0.683759 8.59332 1.59108
0.351821 3.21091 0.0475536
0.372478 3.2297 0.007177
0.318308 3.18602 -0.0415563
0.381448 3.27092 -0.149225
0.39278 3.28627 -0.115579
0.474165 3.25855 -0.166147
0.468556 3.25903 -0.148812
0.3967 3.24523 -0.173694
0.463448 3.35109 -0.292399
0.478202 3.35862 -0.262317
0.479306 3.36195 -0.280523
0.511841 3.29444 -0.294804
0.533564 3.40427 -0.494428
0.611365 3.40863 -0.510337
0.620601 3.51072 -0.708518
0.66193 3.50329 -0.770107
0.64357 3.46869 -0.797174
0.682352 3.53468 -0.91064
0.66416 3.5244 -0.820598
0.669593 3.48447 -0.844372
0.677173 3.53815 -1.04387
0.709592 3.52859 -1.01819
0.707863 3.52882 -1.15823
0.707421 3.52444 -1.17455
0.695777 3.5265 -1.14381
0.726274 3.47729 -1.19639
0.751956 3.51128 -1.24614
0.756991 3.46352 -1.287
0.75322 3.46147 -1.28766
0.743567 3.46434 -1.27393
0.767922 3.48099 -1.39799
0.788905 3.45455 -1.36795
0.780798 3.44097 -1.42616
0.803627 3.45719 -1.51884
0.879337 3.42453 -1.70553
0.88859 3.43463 -1.6857
0.946937 3.40658 -1.83291
0.9362 3.40703 -1.81975
0.946248 3.40668 -1.7977
0.930141 3.38809 -1.78319
0.924599 3.39398 -1.80443
1.01216 3.34868 -2.01392
1.03491 3.34895 -2.02529
1.08804 3.28463 -2.20875
1.08012 3.29884 -2.1808
1.09749 3.28866 -2.20684
1.13026 3.24955 -2.30683
1.13257 3.24781 -2.30535
1.12792 3.25005 -2.28982
1.13146 3.24264 -2.30382
1.17394 3.20041 -2.43435
1.1644 3.21288 -2.40143
0.60694 4.64447 0.52941
0.713641 4.65496 0.585249
0.58047 4.67253 0.576975
0.679757 4.69601 0.608921
0.564716 4.65307 0.639115
0.687396 4.62051 0.726418
0.654488 4.61003 0.707679
0.638766 4.61498 0.702817
0.71888 4.57658 0.682823
0.682266 4.57625 0.687799
0.626225 4.53664 0.543319
0.741438 4.58707 0.640513
0.653912 4.60043 0.535939
0.66504 4.59232 0.550113
0.799682 4.74964 0.688204
0.760114 4.71636 0.772441
0.820217 4.75266 0.80522
0.749766 4.71483 0.764386
0.738094 4.73137 0.745966
0.843053 4.64279 0.770599
0.884588 4.66012 0.719439
0.893225 4.69965 0.703783
0.934372 4.81714 0.795315
0.957511 4.82804 0.857436
0.979146 4.84196 0.842483
0.925153 4.82074 0.80746
0.915682 4.80361 0.858822
0.94823 4.80773 0.88381
0.883438 4.78202 0.843024
0.908599 4.75184 0.876184
0.948444 4.70816 0.867618
0.986063 4.7285 0.898443
1.22942 4.84735 0.926943
1.08477 4.8775 0.907839
1.16005 4.88624 1.01266
1.03816 4.84565 0.937577
1.12144 4.80339 0.9993
1.189 4.78884 1.01012
1.12099 4.75921 0.88419
1.17245 4.82072 0.886645
1.20761 4.82603 0.913414
1.37293 4.90117 1.04184
1.38862 4.94386 1.10829
1.33795 4.92525 1.13215
1.3848 4.94125 1.13889
1.29854 4.88414 1.12428
1.34951 4.8667 1.15643
1.37331 4.83166 1.13274
1.43711 4.87337 1.08503
1.38957 4.84422 1.0592
1.46652 4.94334 1.22741
1.45072 4.91192 1.23321
1.47478 4.88184 1.24678
1.40467 4.84827 1.17871
1.58642 4.90199 1.20158
1.75369 4.92903 1.32717
1.6475 4.96634 1.30414
1.62614 4.9555 1.3367
1.61634 4.92032 1.3541
1.64759 4.87447 1.35574
1.61851 4.87106 1.33041
1.7957 4.95098 1.36274
1.88344 4.9383 1.40519
1.77885 4.9663 1.39193
1.93242 4.95838 1.47105
1.8447 4.95616 1.45152
1.89719 4.95379 1.47778
1.88424 4.91744 1.50352
1.87205 4.89191 1.49115
1.81524 4.86382 1.41187
2.12804 4.9157 1.50197
2.14126 4.9066 1.50288
2.16132 4.93725 1.55165
2.13909 4.93205 1.52276
2.03439 4.94045 1.48242
2.1262 4.92931 1.56922
2.06352 4.94389 1.52972
2.09126 4.94209 1.53682
2.09244 4.91107 1.57248
2.13571 4.91524 1.58294
2.0303 4.85938 1.51907
2.05687 4.85774 1.52788
2.14901 4.85353 1.56267
2.06802 4.86479 1.49474
2.1029 4.85603 1.52143
2.08881 4.89458 1.48226
2.07587 4.89563 1.47772
2.09973 4.88348 1.49028
2.70982 4.79683 1.61292
2.77874 4.77844 1.62716
2.73736 4.78919 1.61848
2.76591 4.80601 1.642
2.65581 4.83157 1.61621
2.71647 4.81538 1.66507
2.62366 4.84225 1.63692
2.68471 4.81097 1.66988
2.75182 4.79208 1.68406
2.58368 4.78204 1.6235
2.95275 4.74601 1.69155
2.90918 4.75019 1.7318
2.93696 4.74717 1.73875
2.8326 4.77695 1.70533
2.95836 4.72626 1.75039
2.82685 4.75845 1.71041
2.93239 4.70955 1.72402
2.91731 4.71576 1.72756
2.93144 4.71113 1.72783
2.91477 4.71645 1.69038
2.91082 4.71279 1.69867
2.84513 4.76052 1.64927
3.46888 4.58467 1.87984
3.547 4.55829 1.90022
3.48142 4.58878 1.89693
3.47864 4.58692 1.90532
3.45871 4.57728 1.91225
3.51249 4.56091 1.92424
3.49682 4.55703 1.91936
3.53791 4.54857 1.93091
3.52421 4.55139 1.92706
3.37712 4.5985 1.89344
3.50877 4.54563 1.91862
3.48531 4.55139 1.89366
3.51707 4.55344 1.89105
3.44926 4.56765 1.87583
3.71897 4.49787 1.92448
3.69424 4.5144 1.92868
3.70608 4.50946 1.94224
3.74735 4.49792 1.94259
3.75622 4.48243 1.95514
3.64972 4.52297 1.94181
3.75347 4.47371 1.953
3.64437 4.50082 1.92967
3.63082 4.50436 1.92608
3.75513 4.47301 1.93094
4.32684 4.28551 1.94354
4.32739 4.28723 1.94514
4.27347 4.30631 1.94351
4.28694 4.30149 1.94376
4.24653 4.31594 1.94302
4.17892 4.33915 1.94937
4.29953 4.29407 1.9429
4.32673 4.28518 1.94343
4.35363 4.27543 1.94424
4.32646 4.2844 1.94368
-0.471567 5.41868 -1.23911
-0.40021 5.48891 -1.42249
-0.35228 5.51468 -1.47221
-0.354451 5.50998 -1.4592
-0.340067 5.41649 -1.52105
-0.343901 5.41072 -1.49595
-0.330299 5.41373 -1.47536
-0.413813 5.39748 -1.4265
-0.402729 5.40389 -1.44924
-0.371599 5.41822 -1.50504
-0.39258 5.43824 -1.5091
-0.360833 5.49381 -1.58515
-0.307432 5.53533 -1.58101
-0.288477 5.5413 -1.63043
-0.282398 5.51964 -1.55819
-0.281888 5.51442 -1.54381
-0.261119 5.49399 -1.56808
-0.232797 5.51522 -1.63569
-0.30521 5.46398 -1.68034
-0.0660449 5.49479 -2.07954
0.0158595 5.50147 -2.18448
-0.0128202 5.52114 -2.02236
0.0122089 5.51554 -2.09887
-0.0176917 5.46151 -2.01689
0.134161 5.43923 -2.30286
0.133052 5.44599 -2.30556
-0.760116 6.41973 0.816241
-0.753209 6.37466 0.784695
-0.755826 6.35379 0.752374
-0.79425 6.43442 0.807399
-0.774621 6.34406 0.695857
-0.783543 6.38513 0.746558
-0.817698 6.40919 0.779745
-0.842228 6.35292 0.821854
-0.845569 6.35846 0.818143
-0.783129 6.30435 0.791476
2.52536 7.5469 -0.585049
2.41158 7.53592 -0.563435
2.43062 7.53527 -0.567286
2.52599 7.53024 -0.586275
2.62173 7.55815 -0.593046
2.62364 7.52619 -0.591179
2.68151 7.53116 -0.592619
2.65875 7.5437 -0.610936
3.14182 7.55245 -0.597164
3.27641 7.55947 -0.58716
3.33365 7.54835 -0.578405
-1.73221 7.50572 -0.85634
-1.71719 7.52887 -0.883832
-1.77996 7.48934 -0.888546
-1.75183 7.47671 -0.905952
-1.6776 7.44904 -0.909826
-1.84277 7.51821 -0.862958
-1.88647 7.52128 -0.791418
-1.81811 7.51138 -0.817627
-2.25636 7.61504 -0.603931
-2.2893 7.60913 -0.635882
-2.2895 7.5879 -0.636413
-2.25114 7.57422 -0.637018
-2.3377 7.58241 -0.612486
-2.30805 7.58137 -0.585253
-2.37795 7.61212 -0.560922
-2.43445 7.56956 -0.560704
-2.9161 7.5909 -0.451023
-3.07574 7.58215 -0.409573
-3.00543 7.58912 -0.431838
-3.0592 7.58608 -0.421487
-3.52013 7.483 -0.370191
-3.48327 7.48746 -0.367138
-3.65779 7.44129 -0.346673
-3.62204 7.4469 -0.354403
-3.67433 7.43323 -0.345789
0.761038 7.66368 1.4219
0.761622 7.6182 1.34218
0.751172 7.65355 1.37573
0.69649 7.66393 1.39298
0.706383 7.62333 1.447
0.688542 7.62965 1.43114
0.686997 7.77169 1.46966
0.68242 7.78358 1.47968
0.698136 7.68613 1.49936
0.688235 7.8496 1.58985
0.628172 7.83779 1.61187
0.652039 7.79663 1.58797
0.659752 7.8838 1.65351
0.633993 8.02226 1.68436
0.591763 8.08107 1.75398
0.594955 8.06845 1.74041
0.615403 7.96329 1.72456
0.607337 8.144 1.78455
0.620318 8.19637 1.82433
0.598708 8.17929 1.82114
0.601483 8.14928 1.85742
0.640081 8.15009 1.8548
0.653431 8.23321 1.87698
0.621274 8.28264 1.90235
0.616239 8.27071 1.89171
0.637269 8.35568 2.00609
0.659345 8.31916 2.02514
0.664975 8.29897 1.9942
0.717231 8.41668 2.0916
0.706453 8.43372 2.11174
0.763705 8.43757 2.24168
0.874283 8.49668 2.35212
0.868143 8.49348 2.33676
0.833322 8.4776 2.34394
0.800884 8.44915 2.29183
0.963335 8.5062 2.46839
0.919632 8.51428 2.44879
0.941539 8.52216 2.47706
0.994571 8.51759 2.53408
1.01042 8.55241 2.60086
0.967592 8.53269 2.54434
0.991885 8.51296 2.57858
1.04992 8.56415 2.67314
1.04304 8.56389 2.72989
1.11794 8.59493 2.83138
1.15147 8.60599 2.89052
1.15316 8.62203 2.9291
1.28735 8.67758 3.06422
1.28425 8.6717 3.0703
1.28441 8.67462 3.06891
1.26416 8.6533 3.04428
1.23459 8.64061 2.99976
1.25655 8.6484 3.0274
1.35263 8.68379 3.11184
1.48531 8.72932 3.19002
1.4416 8.71532 3.17242
1.45621 8.71855 3.17897
1.51296 8.73946 3.20763
1.5985 8.76917 3.26864
1.56772 8.75924 3.25167
1.56975 8.75536 3.25052
-0.626955 8.07994 -1.84132
-0.650384 8.21447 -1.89723
-0.610447 8.18635 -1.90572
-0.626204 8.14754 -1.91633
-0.633765 8.32651 -1.96591
-0.615223 8.29691 -1.94248
-0.602157 8.27377 -1.94339
-0.642442 8.29576 -1.98552
-0.568209 8.38071 -2.04873
-0.579161 8.3772 -2.05811
-0.555587 8.50858 -2.14826
-0.539862 8.49087 -2.10336
-0.478451 8.5399 -2.18741
-0.458165 8.56595 -2.219
-0.467747 8.56376 -2.20612
-0.470561 8.54599 -2.19888
-0.425982 8.63899 -2.32013
-0.398236 8.61189 -2.3177
-0.391413 8.66662 -2.39376
-0.386853 8.66553 -2.41354
-0.37565 8.66321 -2.42962
-0.294175 8.71391 -2.51191
-0.313954 8.70518 -2.54471
-0.273398 8.75539 -2.63617
-0.27951 8.73792 -2.6267
-0.211329 8.76617 -2.7098
-0.206396 8.76488 -2.77552
-0.16929 8.81929 -2.87906
-0.140981 8.80885 -2.90958
-0.162654 8.79533 -2.84475
-0.175336 8.79985 -2.88616
-0.193767 8.78912 -2.83864
