ply
format ascii 1.0
comment VCGLIB generated
element vertex 1850
property float x
property float y
property float z
element face 0
property list uchar int vertex_indices
end_header
0.741519 8.35766 0.0694432
0.740388 8.34752 0.0733557
0.736976 8.25295 0.0526632
0.714848 8.14224 0.0156068
0.715936 8.18062 0.0195276
0.726 8.23627 0.0362683
0.726647 8.37131 0.0459189
0.727054 8.23603 0.0376258
0.684148 8.16418 0.011885
0.689017 8.22127 0.0200074
0.700373 8.29698 0.0314338
0.72069 8.35279 0.0414513
0.684374 8.31641 0.0405761
0.694601 8.35472 0.0400929
0.691891 8.33563 0.0384801
0.678483 8.16412 0.0154884
0.682567 8.18325 0.0160415
0.683181 8.22129 0.0229757
0.679036 8.43895 0.0887632
0.68243 8.48059 0.0966561
0.694151 8.5991 0.102003
0.696877 8.64015 0.114951
0.692267 8.57426 0.0961117
0.692267 8.57426 0.0961117
0.695183 8.55446 0.115869
0.717576 8.3989 0.114358
0.721874 8.53397 0.127889
0.732712 8.63461 0.138969
0.713146 8.60244 0.133324
0.719659 8.63574 0.137372
0.745879 8.60118 0.124918
0.736306 8.58413 0.129716
0.753542 8.61149 0.106682
0.749929 8.55208 0.10429
0.747715 8.51801 0.104057
0.745787 8.48418 0.101658
0.744346 8.46685 0.10407
0.744592 8.56382 0.0819033
0.748457 8.60541 0.0896626
0.746487 8.52939 0.0821173
0.725313 8.60025 0.0753592
0.731703 8.52386 0.0659019
0.730026 8.53243 0.0668345
0.734468 8.58261 0.0742032
0.724996 8.42332 0.0514305
0.724588 8.46549 0.0570687
0.706485 8.61761 0.0841522
0.711981 8.5676 0.0696941
0.709065 8.77425 0.132208
0.715277 8.69543 0.142143
0.716911 8.7379 0.144322
0.717349 8.72066 0.144856
0.717091 8.7807 0.144628
0.74056 8.80327 0.156315
0.743872 8.86225 0.162457
0.741364 8.89634 0.165429
0.739098 8.87113 0.162693
0.754514 8.71065 0.13528
0.766318 8.90425 0.156489
0.754016 8.89553 0.164667
0.757853 8.87882 0.159068
0.768765 8.89757 0.14004
0.76906 8.90585 0.14219
0.764981 8.83811 0.13797
0.760077 8.75361 0.131221
0.759453 8.75307 0.13594
0.746907 8.83434 0.109997
0.744922 8.79238 0.104033
0.749999 8.88463 0.11724
0.742367 8.68305 0.0888465
0.741544 8.7084 0.0921785
0.726475 8.90219 0.127249
0.723958 8.82694 0.113676
0.726377 8.85206 0.116981
0.724286 8.75176 0.0979088
0.748108 9.19482 0.171613
0.748528 9.204 0.175965
0.755604 9.20097 0.196325
0.758381 9.00808 0.178651
0.763222 9.15207 0.193494
0.759835 9.14273 0.192129
0.761022 9.21001 0.198925
0.782456 9.20936 0.192247
0.780307 9.19019 0.19088
0.773589 9.16133 0.191526
0.777152 9.19966 0.194827
0.774848 9.17093 0.192068
0.77709 9.07582 0.171922
0.778015 9.09486 0.175055
0.773892 9.01834 0.165724
0.774855 9.07823 0.153867
0.784023 9.19218 0.172761
0.773962 9.03975 0.150355
0.764877 9.08001 0.145302
0.771869 9.1561 0.156353
0.750928 9.19515 0.167437
0.746322 9.09048 0.149896
0.755757 9.16676 0.157957
-0.76238 5.76886 0.245958
-0.774196 5.87693 0.28345
-0.77759 5.91039 0.293051
-0.800689 5.76406 0.192747
-0.801115 5.84008 0.208412
-0.796229 5.87351 0.221904
-0.787272 5.84753 0.228024
-0.845019 5.82183 0.193494
-0.850106 5.77054 0.18606
-0.85891 5.86376 0.197331
-0.833352 5.93298 0.209685
-0.84038 5.88161 0.201999
-0.875394 5.88842 0.199962
-0.922217 5.82146 0.234388
-0.927733 5.9403 0.25407
-0.916699 5.88195 0.321362
-0.91495 5.89895 0.326179
-0.916154 5.80483 0.31051
-0.918668 5.74506 0.298289
-0.87702 5.9067 0.356022
-0.879186 5.70784 0.33706
-0.801922 6.20254 0.335318
-0.81588 6.01765 0.226423
-0.813641 6.01747 0.229301
-0.822771 6.21799 0.257969
-0.809339 6.21694 0.275236
-0.884272 6.12415 0.227015
-0.856485 6.21772 0.241943
-0.92635 6.20281 0.264159
-0.90477 6.12146 0.241162
-0.891119 6.16554 0.233853
-0.887937 6.04788 0.222456
-0.937227 6.17482 0.281999
-0.933771 6.0738 0.274926
-0.927773 6.1518 0.344863
-0.936388 6.05208 0.319979
-0.933954 6.07699 0.32656
-0.863069 6.20249 0.382718
-0.889115 6.10046 0.370956
-0.882909 6.08392 0.370367
-0.90231 6.15031 0.373426
-0.822568 6.1646 0.36193
-0.811533 6.37028 0.328286
-0.83558 6.28831 0.256825
-0.838619 6.4366 0.286026
-0.848746 6.46387 0.278921
-0.869383 6.41033 0.267544
-0.908006 6.46098 0.273604
-0.912937 6.47787 0.279041
-0.947621 6.38973 0.320787
-0.947022 6.42718 0.3086
-0.940642 6.27851 0.288201
-0.92536 6.46123 0.396505
-0.928132 6.45287 0.391561
-0.949966 6.37724 0.351047
-0.93995 6.30664 0.352641
-0.943418 6.28967 0.345407
-0.934054 6.34069 0.36578
-0.876594 6.44535 0.406103
-0.882888 6.4712 0.408002
-0.917214 6.48713 0.405353
-0.83609 6.41534 0.382992
-0.838742 6.39727 0.384212
-0.81747 6.36557 0.366259
-0.852059 6.48319 0.398504
-0.830985 6.62696 0.357128
-0.845088 6.77815 0.396118
-0.841054 6.74115 0.382202
-0.850643 6.62192 0.317176
-0.851164 6.60294 0.311353
-0.869646 6.80641 0.3422
-0.863891 6.70051 0.32108
-0.894815 6.65138 0.304852
-0.904772 6.68981 0.310738
-0.915032 6.78641 0.327335
-0.891928 6.78722 0.330306
-0.947206 6.56701 0.316811
-0.947311 6.75214 0.34128
-0.95128 6.73186 0.341745
-0.965803 6.75192 0.391052
-0.965149 6.7633 0.383589
-0.964325 6.75422 0.378926
-0.963017 6.777 0.364
-0.945153 6.74632 0.430253
-0.955876 6.71005 0.408551
-0.947518 6.65141 0.406899
-0.904292 6.72703 0.442956
-0.900183 6.70802 0.440608
-0.911476 6.68846 0.43628
-0.924322 6.7838 0.449007
-0.872789 6.60447 0.425093
-0.861367 6.96256 0.453863
-0.868531 7.07679 0.469231
-0.856709 6.90753 0.437265
-0.896889 7.09107 0.398588
-0.962324 6.83632 0.365767
-0.960805 6.88444 0.373469
-0.964459 6.95051 0.388644
-0.965163 6.99813 0.398035
-0.952504 7.07741 0.402586
-0.971448 6.8649 0.420395
-0.978862 7.08302 0.46005
-0.976035 7.0784 0.437574
-0.905907 7.00085 0.493236
-0.909278 7.01016 0.494647
-0.928951 7.05669 0.501349
-0.899475 7.05846 0.500134
-0.885884 7.36322 0.524278
-0.883637 7.29279 0.525808
-0.882223 7.25464 0.468379
-0.883019 7.3357 0.495309
-0.873472 7.17146 0.451284
-0.909384 7.26773 0.444513
-0.91208 7.29242 0.450995
-0.919218 7.35002 0.466014
-0.974453 7.3511 0.48338
-0.96911 7.36913 0.483305
-0.96911 7.36913 0.483305
-0.953666 7.28981 0.451928
-0.952678 7.31505 0.457107
-0.9486 7.21615 0.430341
-0.982602 7.25194 0.493189
-0.985276 7.30682 0.517031
-0.966237 7.34961 0.558404
-0.936667 7.2667 0.548168
-0.937588 7.35714 0.56925
-0.957083 7.34021 0.56293
-0.906209 7.58253 0.592121
-0.90333 7.54972 0.58335
-0.926246 7.63517 0.556161
-0.961672 7.63441 0.547372
-0.93329 7.63593 0.551192
-0.987826 7.62776 0.56273
-0.982321 7.61284 0.554525
-0.979501 7.59713 0.548318
-0.971176 7.5665 0.533905
-0.99563 7.63342 0.571588
-0.969579 7.43091 0.580778
-0.982373 7.55478 0.605381
-0.989954 7.61301 0.614863
-0.911201 7.53587 0.598521
-0.916395 7.54273 0.604042
-0.923768 7.61627 0.624441
-0.924956 7.75552 0.627518
-0.9284 7.78386 0.633586
-0.936853 7.84891 0.651272
-0.932299 7.81103 0.643503
-0.952021 7.90866 0.648578
-0.922552 7.72252 0.601569
-0.941203 7.68982 0.567155
-1.0006 7.84001 0.618734
-0.969646 7.66039 0.555303
-0.977418 7.72432 0.575254
-0.978629 7.74294 0.580213
-1.01918 7.85915 0.649978
-1.01695 7.84198 0.64077
-1.01408 7.80357 0.63583
-1.02474 7.91358 0.667976
-0.999459 7.77618 0.667528
-1.02224 7.90762 0.690057
-1.01303 7.84238 0.676048
-0.969013 7.75765 0.673509
-0.934782 7.76581 0.65876
-0.933514 7.73715 0.652894
-0.950539 7.90585 0.695015
-0.954886 7.91404 0.699855
-0.946434 7.84907 0.682128
-0.965815 7.89084 0.704596
-0.960233 8.00485 0.690854
-0.9589 7.99517 0.690742
-0.971983 8.06605 0.712387
-0.968929 8.04773 0.708843
-0.982398 8.11756 0.733807
-0.992211 8.12357 0.708089
-1.00427 8.16012 0.711373
-1.0032 8.15991 0.712741
-0.993906 8.17529 0.733878
-1.03489 8.11863 0.699592
-1.04834 8.08272 0.714238
-1.05173 8.11209 0.746615
-1.03856 8.14538 0.774971
-0.982462 8.09415 0.746244
-0.992257 8.12848 0.758569
-1.01107 8.16874 0.778748
-1.03875 8.3749 0.819319
-1.02929 8.33786 0.803112
-1.04279 8.38897 0.828036
-1.04891 8.38304 0.785464
-1.05556 8.42849 0.805101
-1.06956 8.46783 0.810632
-1.06578 8.44503 0.801394
-1.04428 8.38962 0.796088
-1.06141 8.46641 0.821079
-1.06771 8.36535 0.773268
-1.0809 8.41872 0.790499
-1.0859 8.45759 0.803559
-1.08281 8.31887 0.772194
-1.09917 8.43682 0.804597
-1.09443 8.40554 0.795685
-1.09793 8.42068 0.800955
-1.10629 8.44202 0.8111
-1.09125 8.44033 0.798897
-1.07939 8.26441 0.78165
-1.08899 8.32014 0.792863
-1.09761 8.36673 0.805965
-1.10145 8.40904 0.836388
-1.08097 8.28588 0.796104
-1.0846 8.32389 0.812248
-1.07414 8.38649 0.843671
-1.09785 8.43856 0.856841
-1.0557 8.41708 0.842564
-1.05241 8.38456 0.836282
-1.16839 8.90488 0.982494
-1.15136 8.83625 0.95771
-1.17494 8.91941 0.962944
-1.18066 8.94541 0.97181
-1.16378 8.87579 0.950248
-1.20613 8.98778 0.978941
-1.1999 8.8961 0.95653
-1.21517 8.95625 0.978112
-1.21478 8.96594 0.979338
-1.19933 8.86405 0.963686
-1.20762 8.92411 0.990469
-1.21049 8.92463 0.986798
-1.16685 8.76464 0.951793
-1.16656 8.86678 0.977558
-1.16586 8.84782 0.974843
-1.17839 8.90029 0.990527
0.791855 5.79054 0.785813
0.803172 5.7999 0.814216
0.754962 5.80519 0.767025
0.737632 5.86382 0.778166
0.74487 5.86301 0.780693
0.766693 5.86866 0.790767
0.6934 5.84461 0.785725
0.692963 5.81227 0.775749
0.726945 5.87271 0.778287
0.719952 5.8719 0.781428
0.712632 5.71767 0.736398
0.709354 5.73344 0.742957
0.656797 5.83895 0.83793
0.658961 5.8009 0.81702
0.660435 5.73855 0.788791
0.662166 5.70811 0.772063
0.668161 5.73632 0.765445
0.672811 5.82932 0.901731
0.672 5.82981 0.900052
0.668222 5.8404 0.893979
0.654095 5.74098 0.841996
0.653043 5.78313 0.848561
0.662013 5.85245 0.882871
0.656856 5.82235 0.865197
0.728137 5.83744 0.932566
0.693757 5.84129 0.920564
0.675811 5.64652 0.863218
0.67872 5.68719 0.874875
0.790183 5.72843 0.879707
0.805432 5.71406 0.837016
0.81251 5.74387 0.824861
0.810017 5.79938 0.846441
0.794265 5.8451 0.902865
0.799337 5.79969 0.876652
0.80052 5.81695 0.87784
0.788736 6.00807 0.84567
0.790094 6.06265 0.865542
0.74205 5.99064 0.818277
0.731633 5.96804 0.807441
0.745937 6.02983 0.831635
0.752337 6.13215 0.865071
0.69795 6.13045 0.873367
0.703319 6.04416 0.843643
0.708512 6.06846 0.848759
0.709932 6.05283 0.843156
0.725481 5.99932 0.818792
0.670557 6.07487 0.888249
0.674709 6.09346 0.883284
0.667694 5.99513 0.86605
0.671451 6.10689 0.956905
0.657856 6.00137 0.904937
0.665616 5.98043 0.917599
0.722004 6.05478 0.986375
0.696525 6.04962 0.975413
0.781491 5.9221 0.935955
0.782483 6.08215 0.978334
0.809128 5.92039 0.88046
0.80758 6.01545 0.909395
0.80897 6.00044 0.9016
0.804029 6.06093 0.93116
0.790794 6.31555 0.944639
0.787939 6.36697 0.953932
0.78799 6.32554 0.941373
0.738057 6.22454 0.887649
0.760511 6.37943 0.943286
0.699179 6.36154 0.945721
0.714014 6.34674 0.933842
0.731643 6.20835 0.881583
0.732563 6.27455 0.902036
0.672238 6.34942 0.988904
0.68128 6.37239 0.97141
0.67804 6.19961 0.914362
0.690789 6.3663 1.05432
0.682542 6.35437 1.03367
0.67905 6.35651 1.02644
0.669823 6.33669 1.00196
0.710459 6.31344 1.04936
0.699976 6.27278 1.03479
0.703977 6.2472 1.02963
0.707095 6.24684 1.03072
0.70133 6.32286 1.04837
0.696838 6.21453 1.0184
0.709762 6.22979 1.02728
0.782583 6.27307 1.02998
0.770613 6.2383 1.02631
0.776434 6.32243 1.04633
0.761451 6.28731 1.044
0.806556 6.22762 0.967883
0.800047 6.32312 1.01161
0.800006 6.25618 0.993959
0.797364 6.37129 1.03198
0.8001 6.63139 1.06126
0.806224 6.54502 1.049
0.77489 6.68691 1.04268
0.785966 6.48391 0.984915
0.718177 6.68818 1.04057
0.734141 6.47084 0.96346
0.733471 6.51643 0.978332
0.672423 6.46187 1.03194
0.686288 6.66051 1.0688
0.680602 6.67424 1.09072
0.6887 6.67127 1.06596
0.694651 6.59787 1.11296
0.685641 6.65028 1.10448
0.741774 6.47972 1.10525
0.738228 6.63774 1.14606
0.709676 6.6502 1.13857
0.713334 6.60343 1.12748
0.788588 6.49409 1.08795
0.78033 6.55783 1.1097
0.778968 6.5854 1.11804
0.776213 6.60357 1.12443
0.784495 6.56756 1.1104
0.802712 6.65151 1.09538
0.796892 6.60101 1.09769
0.793174 6.55206 1.09449
0.797895 6.54632 1.07949
0.797903 6.55556 1.08206
0.797919 6.57405 1.08721
0.791104 6.58748 1.1103
0.794177 6.49737 1.07629
0.78999 6.51274 1.09248
0.791459 6.97591 1.14734
0.799799 6.94444 1.15648
0.796366 6.92868 1.14389
0.74262 6.78855 1.06072
0.704005 6.87296 1.10416
0.705879 6.89977 1.11147
0.698643 6.84515 1.10051
0.694806 6.84237 1.11061
0.701005 6.96924 1.13852
0.700293 6.94237 1.20075
0.689985 6.95743 1.18134
0.689078 6.9035 1.16751
0.739912 6.94468 1.2263
0.729784 6.90073 1.21111
0.717961 6.83895 1.19066
0.717961 6.83895 1.19066
0.759206 6.93619 1.22165
0.805457 6.81661 1.12996
0.794298 6.90777 1.18426
0.789682 7.15625 1.20053
0.788332 7.18046 1.20516
0.787319 7.22007 1.21543
0.786452 7.20499 1.20868
0.791128 7.20998 1.22085
0.791225 7.20212 1.21857
0.74456 7.05451 1.14051
0.757812 7.11591 1.16363
0.750938 7.17951 1.17971
0.775914 7.2082 1.19769
0.721503 7.13054 1.17324
0.71156 7.20786 1.20103
0.714394 7.17679 1.19042
0.697966 7.11532 1.19752
0.698579 7.09748 1.23067
0.691739 7.12561 1.22172
0.698662 7.20957 1.25519
0.694615 7.06781 1.21551
0.694754 7.05171 1.21232
0.729816 7.16077 1.2764
0.719231 7.09848 1.25689
0.71185 7.08343 1.25036
0.721599 7.09822 1.25772
0.719579 7.18568 1.27874
0.764296 7.13693 1.26977
0.75403 7.15155 1.27834
0.763236 7.18432 1.28215
0.753777 7.00898 1.24274
0.76304 7.07343 1.25446
0.758408 7.0412 1.2486
0.802097 7.05544 1.19662
0.797992 7.10835 1.21968
0.797895 7.2042 1.24098
0.792763 7.12847 1.23868
0.788307 7.39856 1.27341
0.782637 7.4103 1.26424
0.746834 7.27408 1.20675
0.762805 7.46008 1.27138
0.719471 7.31825 1.2328
0.724084 7.36565 1.24617
0.71515 7.43495 1.27337
0.705586 7.405 1.28666
0.711937 7.37962 1.25762
0.707813 7.27703 1.22767
0.70742 7.29961 1.23808
0.699306 7.36977 1.29063
0.743367 7.41054 1.34774
0.741251 7.41084 1.34702
0.740118 7.44249 1.3551
0.739456 7.38747 1.34006
0.727892 7.35761 1.32765
0.714042 7.2887 1.30387
0.759111 7.37146 1.33617
0.755316 7.45688 1.36209
0.752191 7.38628 1.34368
0.796236 7.2736 1.26424
0.797252 7.43108 1.30578
0.794098 7.43635 1.31619
0.78619 7.45344 1.34339
0.796004 7.71147 1.38407
0.76432 7.6063 1.32266
0.759545 7.62484 1.32734
0.768946 7.74671 1.37401
0.730633 7.59682 1.32645
0.737248 7.6324 1.33719
0.734549 7.73668 1.37959
0.725577 7.70653 1.3813
0.720473 7.61066 1.34441
0.720129 7.61035 1.34529
0.728616 7.70052 1.42368
0.721871 7.65061 1.39862
0.716267 7.61825 1.37968
0.71855 7.65335 1.39193
0.721457 7.72492 1.41308
0.715904 7.64628 1.38468
0.724674 7.74076 1.42339
0.723533 7.72321 1.41726
0.730085 7.64511 1.41376
0.731477 7.5563 1.38659
0.786358 7.72115 1.43947
0.763952 7.64043 1.42217
0.80254 7.7135 1.40464
0.800944 7.70353 1.4051
0.814243 8.01798 1.51158
0.813278 7.92921 1.48453
0.81581 7.95369 1.49709
0.806882 7.86358 1.45173
0.810218 7.86935 1.46086
0.792284 7.99292 1.48078
0.795533 8.01805 1.49212
0.802731 7.99053 1.48401
0.801927 7.99071 1.48377
0.798747 8.01732 1.49311
0.765755 7.97728 1.47511
0.780836 8.02107 1.48814
0.781511 8.02959 1.4918
0.743165 7.95914 1.49881
0.754447 8.02433 1.50971
0.747406 7.94328 1.51224
0.768354 7.79606 1.47824
0.772877 7.95128 1.53538
0.773732 7.99448 1.55113
0.770217 8.01265 1.55624
0.770518 7.99522 1.55014
0.767454 7.98724 1.54609
0.796094 7.96798 1.53818
0.792903 7.91689 1.51807
0.816373 7.99372 1.52084
0.817136 8.01045 1.52829
0.813644 7.95906 1.50893
0.814502 7.99984 1.53018
0.80812 7.89767 1.48996
0.8115 7.99684 1.53768
0.797533 7.7913 1.46023
0.797164 7.79892 1.46583
0.801394 7.83507 1.47399
0.881038 8.71656 1.8499
0.883563 8.73224 1.85972
0.8806 8.69877 1.84419
0.870902 8.65342 1.81201
0.850397 8.6727 1.81952
0.857471 8.69776 1.82995
0.849754 8.63208 1.79706
0.844802 8.58291 1.77201
0.845927 8.57492 1.76694
0.819983 8.53381 1.77306
0.829853 8.60086 1.80263
0.828545 8.54331 1.794
0.84074 8.64422 1.83862
0.848428 8.71195 1.86749
0.863302 8.70621 1.8764
0.871908 8.64004 1.84015
0.868563 8.67285 1.85865
0.868536 8.59071 1.81458
0.867891 8.59005 1.81618
1.12005 6.82606 0.925026
1.10223 6.83087 0.94137
1.11159 6.8535 0.935766
1.09176 6.78345 0.933031
1.0895 6.77568 0.932863
1.12046 6.90107 0.997166
1.0959 6.84077 0.980617
1.11719 6.90201 0.988476
1.07279 6.76319 0.980104
1.11809 6.83442 1.01628
1.15288 6.79957 1.02403
1.15431 6.79078 1.02269
1.18155 6.73318 0.974892
1.19092 6.78096 0.98127
1.20132 6.82847 0.985205
1.2174 6.87449 0.975701
1.21784 6.88275 0.979411
1.15303 6.68258 0.930569
1.18746 6.80739 0.938151
1.12979 6.73111 0.915192
1.1739 6.88678 0.920018
1.17902 7.04152 0.930928
1.18853 7.15368 0.964708
1.17178 7.09261 0.961241
1.18866 7.14546 0.959027
1.1731 7.06773 0.941987
1.16668 7.06122 0.951773
1.19974 7.15075 0.938192
1.19788 7.15124 0.942611
1.19078 7.12855 0.943244
1.15529 7.01512 0.94641
1.16336 7.07018 0.979856
1.13625 6.97911 0.979371
1.19472 7.06953 1.01736
1.17931 7.02452 1.01686
1.18655 7.10468 1.00932
1.18203 7.08128 1.01052
1.2322 7.08383 1.01901
1.23112 7.08413 1.01945
1.22895 7.08472 1.02033
1.23825 7.13962 1.02162
1.23212 6.9363 0.97796
1.2515 7.01307 0.9783
1.26901 7.09033 0.983059
1.23961 7.01658 0.937298
1.24978 7.03835 0.948982
1.2015 6.97788 0.923564
1.23184 7.10092 0.925375
1.21971 7.21396 0.938127
1.28115 7.36023 0.93445
1.24908 7.32605 0.945968
1.2625 7.38198 0.99734
1.21864 7.25687 0.98028
1.21713 7.25733 0.976264
1.29539 7.38982 1.01785
1.30643 7.24114 0.98604
1.3414 7.38622 0.95911
1.27515 7.27602 0.928145
1.30453 7.31934 0.936839
1.35077 7.62189 0.943811
1.34763 7.67963 0.965751
1.33771 7.62544 0.95128
1.34028 7.63425 0.951514
1.32923 7.5992 0.952321
1.34469 7.66148 0.960057
1.35131 7.67802 1.00197
1.33028 7.61734 0.994065
1.32993 7.6271 0.986215
1.31499 7.52622 1.0092
1.30996 7.52767 1.00692
1.36511 7.61677 1.01906
1.37507 7.64255 1.01786
1.37014 7.6249 1.01797
1.42118 7.66826 0.980586
1.37803 7.53788 0.954145
1.40624 7.64425 0.956897
1.40455 7.63517 0.958438
1.39081 7.5915 0.95198
1.33741 7.50185 0.93474
1.43763 7.94481 0.957144
1.43911 7.9444 0.956543
1.44039 7.91506 0.951922
1.43217 7.86902 0.948425
1.38025 7.79605 0.9735
1.42585 7.84041 1.01781
1.42042 7.83231 1.01648
1.45084 7.92038 1.01885
1.4407 7.90396 1.01653
1.43383 7.93509 1.00995
1.45254 7.83303 1.00883
1.43829 7.8273 1.01359
1.46492 7.92617 1.01416
1.46294 7.84968 0.997321
1.47151 7.89544 1.00588
1.4886 7.94877 1.00016
1.49006 7.95799 1.00247
1.46956 7.87749 0.965975
1.45276 7.7949 0.976716
1.46155 7.93817 0.950836
1.47845 7.9429 0.957715
1.477 7.94333 0.957056
1.4458 7.80693 0.955046
1.65033 8.64196 0.984533
1.65901 8.65888 0.983882
1.66946 8.68495 0.983953
1.6669 8.67601 0.983554
1.62733 8.60941 0.999117
1.65706 8.69749 1.01172
1.67076 8.74199 1.01312
1.63627 8.56749 1.02214
1.68094 8.72916 1.02262
1.66767 8.71366 1.01878
1.65934 8.67726 1.0194
1.67629 8.73054 1.0205
1.6682 8.70379 1.02012
1.65799 8.60016 1.01775
1.66733 8.62658 1.01728
1.68775 8.69826 1.01786
1.68743 8.70801 1.0191
1.68458 8.69914 1.01915
1.67932 8.65243 1.00906
1.68582 8.67959 1.01141
1.69847 8.73399 1.01694
1.65991 8.59002 1.01352
1.70217 8.74316 0.994953
1.70339 8.74273 0.998237
1.65715 8.56212 0.998579
1.65955 8.57112 0.998808
1.69331 8.74584 0.988431
1.66577 8.62782 0.985851
1.66667 8.63726 0.985493
1.65354 8.58292 0.984112
-1.09651 6.79456 -1.05256
-1.12255 6.81404 -1.05607
-1.0691 6.81574 -1.07155
-1.08819 6.83814 -1.06165
-1.05668 6.72642 -1.0535
-1.05905 6.69308 -1.04045
-1.06016 6.83838 -1.12013
-1.04817 6.78947 -1.12357
-1.04456 6.77389 -1.11672
-1.05108 6.67564 -1.14605
-1.06139 6.7329 -1.14781
-1.06445 6.8533 -1.13195
-1.09123 6.64957 -1.14787
-1.09231 6.75093 -1.15526
-1.08791 6.76885 -1.15636
-1.11791 6.60451 -1.11379
-1.13293 6.69388 -1.12478
-1.1525 6.79098 -1.13378
-1.14536 6.77528 -1.13595
-1.15423 6.77637 -1.10596
-1.16062 6.8085 -1.11163
-1.15195 6.76707 -1.11854
-1.16382 6.82456 -1.11446
-1.14946 6.8147 -1.07502
-1.13572 6.74167 -1.0681
-1.16237 6.82763 -1.08744
-1.14524 6.74711 -1.07769
-1.13651 6.68966 -1.07446
-1.16206 7.05348 -1.08455
-1.18147 7.05739 -1.08601
-1.14742 6.89174 -1.06593
-1.15562 6.94766 -1.07254
-1.13065 7.0996 -1.10953
-1.13056 7.08347 -1.1043
-1.12316 7.01981 -1.08998
-1.12302 6.99561 -1.08213
-1.14298 7.10613 -1.10056
-1.09233 6.97174 -1.13735
-1.14199 7.07342 -1.17832
-1.13485 7.0758 -1.17043
-1.14722 6.93945 -1.1714
-1.16277 6.97739 -1.17485
-1.2152 7.07833 -1.13505
-1.20098 7.00741 -1.12479
-1.19221 6.96641 -1.13677
-1.21272 7.06877 -1.15239
-1.2062 7.03689 -1.15185
-1.18711 6.94211 -1.14059
-1.19454 7.01111 -1.10237
-1.2073 7.25669 -1.10903
-1.21962 7.26259 -1.11032
-1.17863 7.27885 -1.12457
-1.18707 7.29467 -1.1221
-1.16725 7.17903 -1.10237
-1.17817 7.32761 -1.1606
-1.18857 7.36969 -1.15259
-1.18029 7.3361 -1.15813
-1.17169 7.19534 -1.19027
-1.17377 7.22121 -1.18839
-1.2129 7.264 -1.19785
-1.2259 7.33039 -1.20322
-1.23013 7.32945 -1.20335
-1.26202 7.31037 -1.15007
-1.25173 7.2601 -1.15196
-1.24439 7.22573 -1.16292
-1.22073 7.10912 -1.15978
-1.24133 7.20965 -1.156
-1.25171 7.3145 -1.1312
-1.22852 7.14589 -1.12436
-1.2323 7.17989 -1.12479
-1.28057 7.6487 -1.15397
-1.2831 7.56223 -1.14514
-1.2756 7.5543 -1.14393
-1.28304 7.54315 -1.14316
-1.2613 7.46192 -1.13361
-1.26286 7.65123 -1.16692
-1.25547 7.61472 -1.16207
-1.24542 7.55983 -1.15382
-1.26308 7.61379 -1.15489
-1.21086 7.46797 -1.18302
-1.2216 7.51375 -1.18433
-1.23414 7.56807 -1.19314
-1.241 7.59629 -1.18518
-1.23054 7.461 -1.21072
-1.26312 7.6464 -1.21657
-1.26501 7.6458 -1.21864
-1.27933 7.53644 -1.22031
-1.27419 7.38628 -1.18718
-1.31468 7.59769 -1.20749
-1.30768 7.62677 -1.22173
-1.31366 7.63544 -1.21864
-1.3267 7.63629 -1.18091
-1.3262 7.63539 -1.19137
-1.31132 7.56135 -1.19141
-1.30012 7.50575 -1.19216
-1.32229 7.61654 -1.19542
-1.29671 7.48779 -1.18575
-1.31594 7.59138 -1.17013
-1.31775 7.60055 -1.17109
-1.28936 7.45362 -1.15652
-1.30925 7.79561 -1.17023
-1.34121 7.88447 -1.18079
-1.27376 7.73431 -1.1827
-1.30966 7.87069 -1.19216
-1.30814 7.88025 -1.19648
-1.28963 7.80722 -1.19319
-1.29139 7.81581 -1.20071
-1.3142 7.91624 -1.21097
-1.27488 7.7429 -1.19161
-1.27895 7.76103 -1.19512
-1.28488 7.77676 -1.2197
-1.33954 7.93624 -1.25054
-1.33156 7.89954 -1.24769
-1.29923 7.74323 -1.23563
-1.30041 7.75258 -1.23631
-1.38121 7.93852 -1.23669
-1.36187 7.92199 -1.24997
-1.34108 7.71017 -1.18522
-1.34964 7.75564 -1.19643
-1.3844 7.9385 -1.22974
-1.37222 7.87448 -1.21833
-1.37408 7.88382 -1.21761
-1.3777 7.90237 -1.21781
-1.35174 7.83381 -1.18271
-1.36156 7.87951 -1.18839
-1.3709 8.06287 -1.20016
-1.37535 8.07035 -1.20113
-1.37878 8.08645 -1.20291
-1.33399 7.99344 -1.20774
-1.38145 8.20232 -1.22815
-1.37794 8.14498 -1.21393
-1.3535 8.08989 -1.22208
-1.35715 8.10602 -1.22299
-1.37863 8.20212 -1.23681
-1.37856 8.20201 -1.2382
-1.37302 8.1421 -1.25684
-1.37213 8.13377 -1.25717
-1.35849 8.08632 -1.25008
-1.37062 8.16862 -1.25025
-1.37747 8.18374 -1.25515
-1.40773 8.17632 -1.26866
-1.40568 8.17675 -1.26859
-1.38295 8.11398 -1.26366
-1.38122 8.1059 -1.26308
-1.37913 8.08946 -1.26195
-1.38921 8.16329 -1.26704
-1.42057 8.16615 -1.25816
-1.41727 8.19144 -1.26754
-1.42416 8.15035 -1.23722
-1.42684 8.166 -1.24577
-1.38919 8.03347 -1.20213
-1.40968 8.11283 -1.21608
-1.42127 8.31298 -1.22756
-1.42862 8.34509 -1.2311
-1.43365 8.34405 -1.23125
-1.44895 8.42495 -1.24
-1.46022 8.45625 -1.24366
-1.41008 8.33103 -1.24089
-1.40057 8.28262 -1.23496
-1.41641 8.3633 -1.24484
-1.43902 8.42667 -1.24337
-1.44329 8.45919 -1.24928
-1.44412 8.45909 -1.2485
-1.41652 8.3715 -1.24776
-1.40732 8.33087 -1.24892
-1.40577 8.32323 -1.24301
-1.42553 8.39275 -1.27389
-1.45018 8.42059 -1.28559
-1.44557 8.38781 -1.28337
-1.43711 8.37269 -1.28207
-1.42236 8.32513 -1.2785
-1.47756 8.44972 -1.27681
-1.47424 8.45012 -1.27994
-1.44781 8.34542 -1.27801
-1.42945 8.26465 -1.27467
-1.44395 8.3127 -1.27339
-1.44597 8.34146 -1.23202
-1.45326 8.35637 -1.23833
-1.47149 8.41931 -1.25156
-1.46144 8.38813 -1.24391
-1.47163 8.43639 -1.24999
-1.48075 8.60385 -1.25903
-1.51867 8.72986 -1.27318
-1.47485 8.63277 -1.2726
-1.47752 8.64185 -1.27289
-1.49013 8.67791 -1.27225
-1.48823 8.69601 -1.28979
-1.49677 8.70275 -1.30237
-1.50606 8.74883 -1.30526
-1.48543 8.6573 -1.29722
-1.49181 8.69449 -1.29838
-1.4799 8.64922 -1.2926
-1.48165 8.64868 -1.29452
-1.4616 8.56676 -1.28565
-1.47176 8.61257 -1.28951
-1.51789 8.72683 -1.30822
-1.51962 8.74565 -1.30951
-1.50229 8.7109 -1.30651
-1.49254 8.66497 -1.30311
-1.52868 8.72535 -1.30011
-1.5304 8.744 -1.30327
-1.52033 8.72635 -1.30798
-1.5259 8.74454 -1.30751
-1.52354 8.72597 -1.30495
-1.50362 8.57884 -1.27046
-1.5224 8.67985 -1.28423
-1.4839 8.52649 -1.25389
-1.50135 8.60882 -1.26402
-1.52702 8.74708 -1.27716
-1.52189 8.71943 -1.27453
-1.51512 8.66305 -1.27313
-0.625732 6.85288 -1.28373
-0.628868 6.87472 -1.2969
-0.630488 6.86551 -1.29655
-0.636681 6.83691 -1.2975
-0.595444 6.80641 -1.24623
-0.604941 6.75038 -1.22448
-0.541034 6.86841 -1.30421
-0.579132 6.69501 -1.31414
-0.598031 6.86598 -1.38623
-0.589156 6.82785 -1.3689
-0.593679 6.81923 -1.36673
-0.587211 6.87561 -1.3871
-0.568716 6.80737 -1.35538
-0.569976 6.80717 -1.35564
-0.601196 6.79695 -1.35289
-0.58832 6.70184 -1.31826
-0.632355 6.8055 -1.32808
-0.632088 6.83384 -1.34815
-0.629308 6.73619 -1.29634
-0.629625 6.73668 -1.29517
-0.642421 7.06198 -1.38655
-0.649179 7.0728 -1.4023
-0.610305 7.11098 -1.383
-0.61613 7.072 -1.36761
-0.635666 7.15262 -1.40815
-0.625353 6.9716 -1.32636
-0.571814 7.13826 -1.40978
-0.591981 7.14187 -1.39818
-0.558507 7.13134 -1.44887
-0.56138 6.92645 -1.39919
-0.563375 6.99779 -1.4222
-0.576362 7.11778 -1.47738
-0.598592 7.06716 -1.46533
-0.588872 7.00683 -1.43904
-0.606166 7.11237 -1.48511
-0.602882 7.09742 -1.47836
-0.602113 7.12075 -1.48731
-0.590218 7.1149 -1.48182
-0.590721 7.12255 -1.48496
-0.636328 7.08482 -1.46028
-0.643613 6.99996 -1.40427
-0.653575 7.37041 -1.5137
-0.653825 7.29626 -1.48839
-0.663182 7.33884 -1.51969
-0.663233 7.30593 -1.50835
-0.657014 7.23644 -1.47324
-0.635177 7.39151 -1.51154
-0.63119 7.30458 -1.47277
-0.647402 7.38958 -1.51406
-0.644801 7.39795 -1.51697
-0.639469 7.35899 -1.49862
-0.63817 7.1761 -1.41902
-0.635482 7.27206 -1.45986
-0.586238 7.31104 -1.48697
-0.594572 7.30475 -1.47827
-0.586505 7.36547 -1.51412
-0.568028 7.22775 -1.48583
-0.568797 7.22891 -1.48299
-0.57011 7.25834 -1.50225
-0.571135 7.25989 -1.49847
-0.570479 7.24518 -1.48884
-0.577406 7.3174 -1.51753
-0.577975 7.3114 -1.50941
-0.582025 7.38613 -1.55471
-0.582207 7.22309 -1.51627
-0.580821 7.28326 -1.5304
-0.63868 7.32081 -1.56558
-0.631529 7.27999 -1.55179
-0.636287 7.35204 -1.58128
-0.619774 7.18296 -1.51559
-0.665889 7.38098 -1.55307
-0.658261 7.28129 -1.52247
-0.661712 7.35997 -1.55868
-0.661877 7.36757 -1.56296
-0.668508 7.65738 -1.63759
-0.671958 7.60012 -1.62423
-0.661645 7.62427 -1.61833
-0.616809 7.57359 -1.59744
-0.61632 7.6598 -1.64051
-0.591256 7.49856 -1.60591
-0.598244 7.57785 -1.63955
-0.602536 7.58428 -1.6237
-0.609656 7.53169 -1.64778
-0.606802 7.55246 -1.64857
-0.630474 7.64422 -1.69938
-0.656305 7.61614 -1.68738
-0.643254 7.45594 -1.62364
-0.679405 7.62797 -1.65576
-0.678309 7.63446 -1.66528
-0.674942 7.58064 -1.64488
-0.673033 7.5534 -1.63551
-0.665238 7.46043 -1.60957
-0.676008 7.77098 -1.68915
-0.676476 7.77897 -1.69267
-0.675652 7.77955 -1.69142
-0.676363 7.76241 -1.68688
-0.676832 7.7704 -1.6904
-0.68103 7.90054 -1.74169
-0.679569 7.86829 -1.72824
-0.681216 7.86713 -1.73075
-0.64627 7.75308 -1.66896
-0.647637 7.76092 -1.67266
-0.673793 7.90191 -1.73966
-0.642046 7.90259 -1.74335
-0.642253 7.83182 -1.70828
-0.651291 7.88059 -1.72636
-0.645404 7.8009 -1.69093
-0.628767 7.90225 -1.76895
-0.629197 7.86812 -1.73707
-0.630259 7.85429 -1.76968
-0.629044 7.88936 -1.77691
-0.610602 7.7143 -1.69899
-0.642025 7.82412 -1.77154
-0.631081 7.71939 -1.72847
-0.635055 7.7679 -1.74813
-0.634739 7.73519 -1.73551
-0.679272 7.86423 -1.78302
-0.676478 7.79968 -1.75612
-0.681195 7.91261 -1.80328
-0.673077 7.86316 -1.7866
-0.68753 7.80711 -1.73674
-0.71626 8.47739 -1.99748
-0.717523 8.5182 -2.01324
-0.72074 8.54928 -2.0292
-0.710601 8.6411 -2.0612
-0.714069 8.60015 -2.04497
-0.710869 8.56025 -2.02736
-0.716399 8.57554 -2.03529
-0.711856 8.46313 -1.98689
-0.698024 8.5918 -2.04492
-0.703941 8.63224 -2.06078
-0.708958 8.64099 -2.06173
-0.696635 8.4654 -1.98403
-0.700565 8.51339 -2.00489
-0.691756 8.56694 -2.03731
-0.683636 8.47826 -2.0009
-0.69706 8.64109 -2.08618
-0.691506 8.58506 -2.06214
-0.686461 8.53723 -2.04111
-0.692388 8.58443 -2.06348
-0.675285 8.41665 -1.9907
-0.684354 8.49589 -2.02676
-0.716346 8.43469 -2.00876
-0.716772 8.48287 -2.0297
-0.720999 8.62794 -2.09084
-0.728282 8.59331 -2.05891
0.577811 7.18681 -0.115965
0.574636 7.12518 -0.109958
0.569313 7.07914 -0.122519
0.569482 7.08775 -0.124945
0.599925 7.10247 -0.0715442
0.595012 7.17214 -0.0866201
0.583003 7.08398 -0.0803531
0.582306 7.14515 -0.0910489
0.645426 7.18961 -0.0785869
0.636572 7.17249 -0.0746079
0.636816 7.13735 -0.0697994
0.636816 7.13735 -0.0697994
0.619351 7.06796 -0.0570328
0.632997 7.19022 -0.0764064
0.616265 7.01543 -0.0492144
0.677493 7.19444 -0.104441
0.662016 7.13596 -0.0752187
0.679792 7.10829 -0.150062
0.639816 6.99999 -0.168559
0.651131 7.18534 -0.183137
0.650502 7.15892 -0.18037
0.593796 6.94932 -0.156183
0.61546 7.15097 -0.180343
0.596839 7.09901 -0.171765
0.629611 7.15908 -0.183711
0.566913 7.02513 -0.126707
0.569315 7.02464 -0.13013
0.573771 7.05033 -0.137858
0.585504 7.10999 -0.157791
0.5892 7.43602 -0.147487
0.584918 7.35823 -0.141859
0.582943 7.34861 -0.149505
0.588153 7.46032 -0.16301
0.575884 7.24401 -0.149445
0.616872 7.46483 -0.12021
0.609975 7.37888 -0.110679
0.640646 7.36168 -0.101746
0.634304 7.43924 -0.111428
0.629053 7.31077 -0.0925174
0.682169 7.39994 -0.135845
0.680452 7.38309 -0.131335
0.684077 7.38649 -0.173367
0.684527 7.38678 -0.170886
0.683566 7.40326 -0.179054
0.683034 7.39435 -0.180553
0.688168 7.4405 -0.159413
0.648194 7.22818 -0.19037
0.658757 7.37505 -0.200723
0.656126 7.44373 -0.210864
0.60836 7.27282 -0.191366
0.616226 7.31555 -0.19711
0.628908 7.45292 -0.2133
0.642646 7.45223 -0.215709
0.596539 7.45646 -0.19214
0.596539 7.45646 -0.19214
0.601608 7.45542 -0.199365
0.601061 7.71203 -0.188878
0.594961 7.63845 -0.194733
0.596436 7.65681 -0.193547
0.617357 7.65222 -0.151053
0.606977 7.7501 -0.174629
0.601211 7.62454 -0.157792
0.597093 7.53485 -0.145766
0.65122 7.70593 -0.151044
0.638723 7.73352 -0.152534
0.649377 7.7509 -0.156849
0.686707 7.71067 -0.177915
0.671815 7.71373 -0.156685
0.670709 7.55206 -0.136871
0.665643 7.63229 -0.227171
0.659096 7.66793 -0.236101
0.678164 7.72288 -0.229448
0.671915 7.6596 -0.226108
0.594533 7.54725 -0.193805
0.608652 7.74407 -0.223849
0.62453 8.03763 -0.209566
0.634241 8.06781 -0.207705
0.676481 8.0568 -0.201538
0.647359 8.01871 -0.191295
0.64941 7.86928 -0.172279
0.646041 7.9093 -0.176858
0.690232 8.06444 -0.218086
0.687553 8.00508 -0.208446
0.680643 8.02648 -0.200535
0.677196 7.93732 -0.186888
0.688664 7.84033 -0.234016
0.693843 7.99115 -0.2387
0.697747 8.06244 -0.232659
0.696685 8.06179 -0.238536
0.663654 7.89857 -0.261377
0.67571 7.96886 -0.261665
0.667736 8.02833 -0.27464
0.638713 7.90969 -0.260127
0.640313 7.98965 -0.268136
0.617378 7.94271 -0.244488
0.624793 8.06204 -0.259953
0.619799 8.03286 -0.25161
0.645077 8.23089 -0.227044
0.649916 8.336 -0.241023
0.654182 8.33614 -0.238051
0.657063 8.25991 -0.223426
0.656791 8.26944 -0.225192
0.649542 8.37415 -0.247593
0.682103 8.26794 -0.228977
0.676964 8.37364 -0.241217
0.674669 8.24927 -0.225298
0.681085 8.3159 -0.23477
0.67249 8.28772 -0.229695
0.700338 8.29366 -0.252062
0.695426 8.27542 -0.243442
0.70227 8.31094 -0.270304
0.684971 8.30864 -0.297251
0.689021 8.19375 -0.280208
0.695219 8.21313 -0.27826
0.656426 8.31914 -0.301252
0.636959 8.30251 -0.283603
0.631536 8.2454 -0.274398
0.645458 8.47553 -0.270693
0.649161 8.52621 -0.274708
0.656215 8.63548 -0.288788
0.650736 8.5919 -0.298717
0.665276 8.44294 -0.248095
0.664859 8.56041 -0.268163
0.659669 8.64418 -0.28591
0.662548 8.61908 -0.279664
0.663908 8.61073 -0.277303
0.689269 8.57632 -0.268173
0.696173 8.62643 -0.275533
0.681246 8.59373 -0.268837
0.704285 8.5489 -0.27774
0.703094 8.64235 -0.283069
0.702245 8.56627 -0.276109
0.708429 8.52154 -0.291653
0.706789 8.42109 -0.273533
0.708608 8.50505 -0.286122
0.68636 8.61221 -0.331279
0.684536 8.58692 -0.32886
0.683448 8.57852 -0.327971
0.679035 8.47713 -0.318797
0.681564 8.48543 -0.319936
0.656175 8.57274 -0.31469
0.668992 8.83675 -0.318583
0.680191 8.71188 -0.282903
0.680089 8.74545 -0.288629
0.682389 8.79588 -0.295505
0.681746 8.84622 -0.304437
0.680764 8.84619 -0.305121
0.67919 8.87973 -0.311874
0.677871 8.82933 -0.304313
0.710063 8.92077 -0.31329
0.703179 8.89593 -0.309072
0.698805 8.90467 -0.309323
0.714312 8.82666 -0.31211
0.715505 8.80945 -0.312628
0.718925 8.87661 -0.322231
0.713294 8.89474 -0.315387
0.712007 8.81865 -0.308233
0.717391 8.80841 -0.321211
0.716606 8.79969 -0.323185
0.716167 8.75801 -0.31371
0.706274 8.82347 -0.344801
0.707256 8.8235 -0.344116
0.712234 8.89956 -0.349836
0.690341 8.85769 -0.351803
0.696418 8.87422 -0.354219
0.690565 8.72209 -0.340942
0.692715 8.75584 -0.344039
0.676813 8.90179 -0.345599
0.672633 8.83428 -0.339424
0.679042 8.90988 -0.348804
0.681894 9.01702 -0.334846
0.683996 9.04586 -0.336927
0.686515 9.09335 -0.345853
0.695005 9.0176 -0.323713
0.697042 9.08449 -0.333353
0.699844 9.18005 -0.347201
0.697051 9.17042 -0.347569
0.725584 9.07206 -0.34533
0.723236 9.0822 -0.342649
0.728815 9.15825 -0.355928
0.727421 9.13924 -0.352609
0.728204 9.20479 -0.374959
0.725804 9.07157 -0.349645
0.728916 9.1581 -0.357215
0.72046 8.9838 -0.354456
0.704613 8.98345 -0.364715
0.70539 9.04119 -0.36971
0.6927 9.13892 -0.370636
0.689198 9.05226 -0.364729
0.691882 9.06141 -0.368657
-0.855369 6.87774 0.370171
-0.861929 6.97403 0.373893
-0.869358 7.06132 0.366537
-0.86468 7.02669 0.381987
-0.889817 6.9368 0.338441
-0.89077 7.02462 0.342234
-0.906288 7.07629 0.333153
-0.881814 7.0428 0.349943
-0.933979 6.98695 0.336308
-0.924351 7.04894 0.334742
-0.978207 7.0728 0.373092
-0.967194 7.07321 0.358561
-0.948355 6.9423 0.341462
-0.950748 7.02995 0.339447
-0.95291 7.00355 0.343853
-0.947217 6.86338 0.344617
-0.976859 7.07314 0.390993
-0.970234 6.84501 0.379301
-0.973132 6.93269 0.381233
-0.952356 7.03127 0.434416
-0.957587 7.02213 0.430396
-0.962627 6.95151 0.426205
-0.968318 7.03896 0.422333
-0.959436 6.89903 0.428358
-0.963898 6.89872 0.424968
-0.932589 7.35132 0.433983
-0.93547 7.334 0.435098
-0.934667 7.19671 0.440734
-0.941312 7.17918 0.442368
-0.876574 7.17375 0.40726
-0.874165 7.18241 0.403043
-0.886741 7.33626 0.400937
-0.879414 7.2508 0.401658
-0.90874 7.35258 0.427886
-0.910817 7.19651 0.335941
-0.921228 7.29895 0.333364
-0.944187 7.17745 0.33698
-0.945664 7.26325 0.336859
-0.941898 7.26346 0.336341
-0.93893 7.2808 0.335867
-0.975407 7.33053 0.354277
-0.962868 7.17654 0.346797
-0.984018 7.33943 0.408147
-0.984997 7.35651 0.405465
-0.986394 7.34766 0.392981
-0.986274 7.33043 0.38938
-0.983002 7.21889 0.384193
-0.959258 7.3154 0.430465
-0.966321 7.28915 0.424985
-0.966327 7.18608 0.424526
-0.938337 7.61972 0.423894
-0.955894 7.50215 0.431028
-0.895987 7.4602 0.398291
-0.905501 7.54048 0.401245
-0.904789 7.56739 0.397107
-0.907436 7.5848 0.369513
-0.902872 7.53126 0.374256
-0.921793 7.43993 0.340177
-0.925655 7.50256 0.340457
-0.928913 7.51133 0.33844
-0.970558 7.47307 0.339461
-0.964093 7.52729 0.338354
-0.954829 7.54575 0.337007
-0.984035 7.52638 0.354056
-0.978327 7.58043 0.343337
-0.994765 7.59822 0.398453
-0.993873 7.56232 0.395422
-0.995928 7.53496 0.373198
-0.976232 7.63547 0.419384
-0.974285 7.56379 0.420443
-0.973739 7.5728 0.42091
-0.985492 7.52713 0.411719
-0.969054 7.86366 0.418855
-0.972938 7.82369 0.420877
-0.931119 7.93503 0.389319
-0.932182 7.82574 0.403214
-0.919979 7.7363 0.357464
-0.926967 7.8454 0.362936
-0.924737 7.82571 0.368969
-0.930306 7.91499 0.374528
-0.932737 7.95468 0.377329
-0.930577 7.91495 0.372545
-0.943252 7.73473 0.338893
-0.949687 7.85377 0.339952
-0.978441 7.87204 0.338823
-0.976461 7.87215 0.338551
-0.984949 7.84184 0.339855
-0.965374 7.95234 0.336663
-0.999398 7.9307 0.350007
-0.984226 7.71258 0.343198
-0.984226 7.71258 0.343198
-0.99067 7.77198 0.348099
-1.00841 7.89078 0.379506
-1.0099 7.89056 0.368603
-1.00494 7.78148 0.374519
-0.994606 7.93171 0.408059
-0.993367 7.88205 0.408555
-0.998991 7.94137 0.404816
-0.99322 7.72289 0.407241
-0.961785 8.07056 0.410249
-0.969222 8.11884 0.409506
-0.974615 8.25484 0.405301
-0.984271 8.24459 0.406984
-0.953649 8.07094 0.403563
-0.957203 8.06107 0.409353
-0.956486 8.26514 0.36508
-0.947379 8.16842 0.381268
-0.937899 8.04237 0.385061
-0.953039 8.14828 0.352353
-0.96205 8.27442 0.352004
-0.952326 8.08985 0.349896
-0.998066 8.26254 0.340294
-1.01273 8.10604 0.357351
-1.01743 8.174 0.359616
-1.01295 8.12551 0.356519
-1.0134 8.16443 0.354854
-1.02012 8.2031 0.361474
-1.01251 8.03826 0.390088
-1.01536 8.10626 0.387803
-0.997871 8.15618 0.407709
-0.994502 8.11743 0.409895
-1.00637 8.21408 0.401813
-1.00541 8.26285 0.403005
-1.01525 8.25247 0.395439
-1.00595 8.1654 0.401666
-1.00664 8.16536 0.401143
-0.998172 8.51276 0.398898
-0.99359 8.48732 0.399225
-0.992611 8.53874 0.397175
-0.976591 8.41114 0.395054
-0.98137 8.4366 0.398413
-0.983207 8.50496 0.392976
-0.976114 8.37694 0.398357
-0.975407 8.53084 0.368602
-0.962907 8.36884 0.373345
-0.988394 8.52988 0.346146
-0.98128 8.50462 0.350135
-1.01232 8.51995 0.342448
-1.00777 8.4688 0.341776
-0.995557 8.43519 0.340064
-0.991003 8.38404 0.339392
-1.02446 8.34813 0.359237
-1.02319 8.39956 0.354874
-1.03023 8.51056 0.358355
-1.02756 8.42531 0.3829
-1.02954 8.49376 0.385819
-1.00824 8.3752 0.401735
-1.02919 8.53662 0.387057
-1.01908 8.4516 0.394083
-0.999097 8.68395 0.39272
-1.01295 8.77739 0.39117
-0.995471 8.78678 0.376923
-0.997872 8.81234 0.377165
-0.998378 8.70966 0.389544
-1.00101 8.76088 0.387167
-1.00381 8.80354 0.385981
-0.983171 8.6504 0.375605
-1.00977 8.81136 0.34559
-0.995749 8.74368 0.352437
-0.993147 8.67528 0.35061
-1.01368 8.6912 0.34287
-1.01034 8.73421 0.342472
-1.00541 8.62312 0.341631
-1.00976 8.66571 0.342293
-1.03706 8.67312 0.376333
-1.03754 8.69023 0.37717
-1.02066 8.65708 0.394498
-1.02651 8.71668 0.390541
-1.02907 8.76791 0.389008
-1.03373 8.78475 0.385606
-1.01993 8.98537 0.384808
-1.03879 9.12069 0.382667
-1.01775 9.10225 0.371175
-1.02069 9.12159 0.372889
-1.01264 8.96624 0.379513
-1.01842 9.11183 0.359576
-1.01123 9.01484 0.361949
-1.01239 9.03427 0.363497
-1.00931 8.9955 0.365917
-1.01382 9.06347 0.368118
-1.01388 9.06346 0.367658
-1.0101 9.01499 0.370224
-1.02282 9.04327 0.347892
-1.01315 8.98541 0.352172
-1.02141 9.10184 0.352023
-1.03561 9.06202 0.345788
-1.03144 9.02328 0.345261
-1.02774 8.98452 0.344797
-1.02495 8.94571 0.34446
-1.04623 8.88625 0.359787
-1.04465 8.86684 0.358791
-1.04647 8.94465 0.356859
-1.04756 9.00301 0.355041
-1.05422 9.11956 0.35732
-1.04754 9.03222 0.353392
-1.0476 8.96426 0.375664
-1.05094 9.04197 0.37231
-1.05073 9.02246 0.368551
-1.04204 9.06205 0.382164
-1.04376 9.08143 0.381063
2.0143 8.37204 -0.313913
2.01966 8.37874 -0.313862
1.98474 8.27669 -0.324801
1.98276 8.27754 -0.324214
1.96012 8.28646 -0.304359
1.98297 8.33085 -0.304288
2.01264 8.3903 -0.302739
2.00575 8.38379 -0.294829
1.93831 8.24163 -0.304806
2.02593 8.38228 -0.270256
1.98071 8.30292 -0.278552
1.93636 8.22312 -0.286293
1.95525 8.26001 -0.283581
1.96203 8.19311 -0.282243
2.02222 8.34772 -0.273552
2.03512 8.36924 -0.273393
1.97646 8.19685 -0.299979
1.97304 8.19945 -0.316841
2.00991 8.28245 -0.30673
2.04873 8.37404 -0.301973
2.05382 8.38031 -0.293311
2.0104 8.2821 -0.304574
2.01826 8.33401 -0.316924
1.94927 8.14685 -0.324648
2.12378 8.60147 -0.296485
2.11023 8.59702 -0.289444
2.09696 8.57168 -0.273411
2.13476 8.65568 -0.273737
2.13978 8.65274 -0.263018
2.03611 8.43765 -0.275851
2.1596 8.64374 -0.261534
2.12464 8.58879 -0.261586
2.11443 8.56318 -0.263023
2.05797 8.44747 -0.26711
2.16685 8.65092 -0.266926
2.06559 8.42428 -0.273911
2.12055 8.54208 -0.292354
2.13502 8.57583 -0.290262
2.04838 8.41431 -0.313381
2.13778 8.6052 -0.295363
2.14051 8.61407 -0.295318
2.10448 8.53989 -0.303034
-0.945746 8.15367 0.696638
-0.949477 8.06153 0.680347
-0.966442 8.18218 0.692251
-0.991252 8.18218 0.702612
-0.991252 8.18218 0.702612
-0.998616 8.19519 0.728779
-0.999397 8.18825 0.719836
-0.999415 8.18747 0.723967
-0.999709 8.17603 0.738734
-0.991 8.19083 0.748687
-0.965704 8.07741 0.740999
-0.969403 8.06086 0.738185
-0.938083 8.17081 0.74063
-0.94402 8.12034 0.734473
-0.951751 8.09459 0.736116
-0.956508 8.07747 0.736818
-0.934418 8.17967 0.738181
-0.934617 8.41657 0.743747
-0.937267 8.40071 0.738894
-0.933248 8.34999 0.736064
-0.991453 8.25488 0.724444
-0.986868 8.31165 0.736647
-0.989265 8.28727 0.731845
-0.974856 8.39334 0.748665
-0.970271 8.45011 0.760868
-0.983673 8.34415 0.74305
-0.962813 8.43484 0.748689
-0.960712 8.45115 0.751392
-0.976828 8.24561 0.767401
-0.965741 8.42663 0.793438
-0.939929 8.39051 0.794034
-0.950555 8.39133 0.794141
-0.932837 8.39102 0.788393
-0.922198 8.38647 0.763051
-0.920237 8.41986 0.765277
-0.910784 8.69399 0.805482
-0.912671 8.60795 0.79194
-0.909926 8.59857 0.79346
-0.908018 8.71922 0.8117
-0.935502 8.64586 0.788705
-0.918465 8.72141 0.804455
-0.930873 8.6455 0.788658
-0.949817 8.61165 0.787822
-0.939431 8.72204 0.80991
-0.95402 8.65043 0.819218
-0.955674 8.6335 0.815563
-0.948173 8.7121 0.819179
-0.950666 8.68622 0.816262
-0.953274 8.51831 0.813569
-0.950811 8.56135 0.819636
-0.943266 8.67294 0.83653
-0.92887 8.66224 0.840167
-0.931818 8.62807 0.834355
-0.953606 8.48356 0.809747
-0.953448 8.49215 0.811206
-0.942922 8.56013 0.822783
-0.910621 8.67942 0.835596
-0.914227 8.61962 0.824776
-0.903322 8.70567 0.834529
-0.90507 8.69699 0.834206
-0.905898 8.66296 0.826801
-0.910001 8.69646 0.839095
-0.904426 8.68137 0.822641
-0.904959 8.67208 0.825087
-0.889916 9.02054 0.87004
-0.898593 8.78296 0.829737
-0.894527 8.85865 0.843897
-0.908116 9.00373 0.862491
-0.89806 9.03136 0.868221
-0.93575 8.84043 0.853393
-0.927649 8.92506 0.870611
-0.915714 8.99875 0.892085
-0.920689 8.83613 0.869929
-0.899849 8.76062 0.844407
-0.88601 8.97833 0.883642
-0.886 8.97875 0.88143
-0.888357 8.94064 0.875879
0.76999 7.99202 1.46371
0.767453 8.00753 1.47133
0.76583 7.96285 1.43311
0.773908 7.92148 1.4292
0.774934 7.96169 1.44458
0.773919 7.95375 1.44049
0.743301 7.88817 1.40623
0.742501 7.92942 1.41496
0.730795 7.92775 1.41743
0.708196 7.96115 1.45671
0.713354 7.91337 1.43924
0.736309 7.80909 1.45914
0.731466 7.83418 1.46004
0.73864 8.00025 1.49483
0.740041 7.95046 1.48623
0.768411 7.93013 1.47266
0.769849 7.89662 1.46892
0.762208 8.06671 1.46714
0.749402 8.16133 1.49336
0.743169 8.21862 1.4979
0.740184 8.23295 1.50967
0.742193 8.20381 1.48653
0.74586 8.16389 1.47735
0.723653 8.12381 1.45442
0.706608 8.22748 1.47469
0.722553 8.26106 1.48369
0.692581 8.25699 1.48896
0.701595 8.20995 1.47589
0.715006 8.09011 1.45024
0.698277 8.07451 1.48011
0.697526 8.08245 1.48221
0.688109 8.20458 1.49759
0.684197 8.24399 1.50944
0.705993 8.13637 1.51344
0.708195 8.20949 1.52804
0.711509 8.18535 1.52418
0.731391 8.19613 1.52241
0.707628 8.4995 1.5587
0.711934 8.46631 1.55068
0.709087 8.48173 1.56073
0.70132 8.51923 1.54321
0.712482 8.33553 1.49845
0.716381 8.33584 1.49896
0.70099 8.40218 1.51137
0.675223 8.46653 1.52874
0.673456 8.36901 1.53321
0.663662 8.49692 1.54795
0.66787 8.44625 1.53952
0.66055 8.51991 1.56441
0.688926 8.44339 1.56702
0.683118 8.52793 1.58126
0.725685 8.33844 1.53797
0.70347 8.46278 1.5652
0.671588 8.80232 1.61112
0.668028 8.82986 1.61806
0.680794 8.68377 1.57335
0.680524 8.68381 1.57301
0.664102 8.83223 1.60286
0.668045 8.80429 1.59835
0.648823 8.82244 1.59461
0.6521 8.83206 1.59701
0.663576 8.72999 1.57673
0.663545 8.7768 1.58662
0.669446 8.73982 1.57947
0.669446 8.73982 1.57947
0.666063 8.75828 1.58299
0.687182 8.58209 1.54812
0.644385 8.77404 1.59086
0.655678 8.71972 1.57525
0.649352 8.79428 1.58935
0.647227 8.67777 1.5872
0.647227 8.67777 1.5872
0.640632 8.75221 1.60177
0.639168 8.77113 1.60382
0.645517 8.69627 1.59138
0.65405 8.66668 1.59849
0.646235 8.73231 1.60738
0.635967 8.83519 1.62389
0.678404 8.61139 1.59557
0.673791 8.65811 1.60336
0.651886 8.7882 1.624
0.658228 8.74162 1.61644
0.647418 8.82551 1.63013
0.435729 3.00335 -0.316547
0.424817 2.99763 -0.314274
0.437664 3.00632 -0.344579
0.484213 2.97056 -0.330226
0.469781 2.95374 -0.324135
0.422429 2.94109 -0.305201
0.386065 2.95263 -0.270916
0.416265 2.97256 -0.327213
0.504683 3.03512 -0.425682
0.506913 3.03545 -0.453681
0.523095 3.03302 -0.425082
0.501876 2.99178 -0.352108
0.686836 3.05744 -0.700755
0.695728 3.05681 -0.714922
0.695023 3.06247 -0.741732
0.716393 3.05045 -0.751026
0.72522 3.05663 -0.885238
0.742358 3.05017 -0.828892
0.800917 3.01098 -1.21623
-0.388458 3.21588 -0.022701
-0.461645 3.18226 -0.00993
-0.469761 3.16508 0.0216721
-0.417649 3.16014 0.0516123
-0.472721 3.26033 0.0330182
-0.536556 3.22912 -0.0010695
-0.534486 3.19359 0.0211983
-0.692527 3.31921 0.0573536
-0.680647 3.32128 0.0661621
-0.880956 3.34345 0.15094
-0.85282 3.33283 0.147814
-0.824269 3.32911 0.141636
-0.832011 3.34681 0.136185
-0.886142 3.28685 0.118465
-0.883896 3.29045 0.126901
-1.02296 3.35782 0.177295
-1.02613 3.35332 0.112853
-0.997738 3.35357 0.108142
-1.00808 3.31622 0.170481
-1.09147 3.36855 0.186045
-1.10386 3.38035 0.16578
-1.13546 3.37591 0.184395
-1.16185 3.37826 0.184759
-1.06255 3.38084 0.151577
-1.16981 3.35605 0.141548
-1.16065 3.31991 0.187981
-1.1626 3.31541 0.177411
-1.09067 3.34462 0.194807
-1.09902 3.34491 0.196259
-1.11589 3.34242 0.197915
-1.11646 3.33318 0.194167
-1.21015 3.37231 0.161191
-1.2533 3.35356 0.159832
-1.3027 3.3105 0.191883
-1.27221 3.31577 0.17691
-1.23532 3.3137 0.193708
-1.44116 3.32887 0.251379
-1.45055 3.32722 0.253081
-1.35807 3.35537 0.189504
-1.44427 3.29858 0.20342
-1.39214 3.31945 0.187402
-1.45618 3.30615 0.201897
-1.4388 3.28893 0.221185
-1.44065 3.2916 0.214757
-1.40368 3.29668 0.208583
-1.50504 3.33128 0.237246
-1.52751 3.28769 0.217444
-1.54141 3.27108 0.226861
-1.51267 3.27558 0.226919
-1.48911 3.28323 0.256744
-1.45617 3.31311 0.259226
-1.49201 3.30226 0.265482
-1.62896 3.2928 0.263083
-1.71191 3.24073 0.259388
-1.70224 3.23758 0.254358
-1.64819 3.23728 0.249498
-1.67247 3.23156 0.253607
-1.6796 3.22597 0.29585
-1.82562 3.20102 0.30879
-1.78238 3.21851 0.280113
-1.77963 3.1896 0.275727
-1.88762 3.16597 0.328691
-1.94287 3.14568 0.324638
-1.89181 3.16993 0.31527
-1.9516 3.1126 0.308083
-1.96395 3.10494 0.34758
-2.08166 3.0837 0.338747
-2.0886 3.07276 0.327228
-2.0722 3.08302 0.326875
-2.06938 3.05195 0.333319
-2.05927 3.05734 0.351512
-2.03595 3.07786 0.355165
-2.09927 3.05488 0.361504
-2.17639 3.03502 0.361634
-2.20856 3.02357 0.362
-2.17885 3.03693 0.334589
-2.21963 3.00246 0.335446
-2.2016 3.00359 0.338637
-2.31698 2.97638 0.365959
-2.33248 2.96966 0.366518
-2.34393 2.95591 0.369684
-2.32207 2.96842 0.367942
-2.3558 2.95961 0.365708
-2.3351 2.97239 0.35244
-2.32532 2.97028 0.343557
-2.30362 2.98394 0.343268
-2.30767 2.95506 0.354706
-2.45636 2.89413 0.383357
-2.43208 2.9087 0.379691
-2.44541 2.9078 0.366212
-2.44539 2.90742 0.36519
-2.43483 2.89044 0.364379
-2.43308 2.88979 0.372962
-2.43676 2.89826 0.382174
-2.43605 2.897 0.381419
-2.57341 2.81329 0.400256
-2.55102 2.82849 0.388854
-2.57688 2.78838 0.404367
-2.59742 2.77158 0.414255
-2.58467 2.7878 0.41696
-2.78224 2.58468 0.507229
-2.73459 2.63909 0.482834
-2.75279 2.62255 0.489904
-2.75992 2.61597 0.487929
-2.75989 2.61621 0.488502
-2.7242 2.65983 0.469558
-2.717 2.66134 0.460735
-2.78445 2.5834 0.50026
-2.75817 2.61293 0.484741
-2.73743 2.62783 0.479028
-2.76967 2.59216 0.495663
-2.74199 2.623 0.485761
-2.8758 2.48402 0.549811
-2.83863 2.52254 0.528557
-2.87511 2.48244 0.547763
-2.85408 2.50152 0.541841
0.511504 3.59836 0.371391
0.481654 3.63678 0.39311
0.506532 3.63655 0.393033
0.47996 3.64419 0.427675
0.433962 3.52024 0.340385
0.469136 3.57139 0.337996
0.568664 3.67959 0.480443
0.605831 3.59262 0.51095
0.62585 3.60451 0.52969
0.71162 3.72294 0.605058
0.71768 3.72757 0.596127
0.657716 3.69537 0.582162
0.695865 3.66264 0.613515
0.764819 3.64611 0.613122
0.722403 3.63723 0.538286
0.753448 3.64819 0.561506
0.7006 3.65836 0.504508
0.762139 3.7035 0.671062
0.77751 3.70174 0.686282
0.821817 3.72218 0.716934
0.818632 3.68165 0.70901
0.866471 3.68936 0.750322
0.991111 3.67279 0.863559
0.977774 3.66873 0.805647
1.01116 3.68273 0.805908
1.09358 3.72505 0.941652
1.04801 3.6986 0.96973
1.05919 3.67116 0.978242
1.12232 3.67444 0.945875
1.11675 3.67576 0.938159
1.06175 3.677 0.8693
1.20146 3.67151 1.07554
