ply
format ascii 1.0
comment VCGLIB generated
element vertex 834
property float x
property float y
property float z
element face 0
property list uchar int vertex_indices
end_header
2.079067061596322 3.7015610692300647 1.278104211332672
-0.3637925375584893 4.057890447194721 -1.9966714193155273
-0.28667859042505783 3.8706707378488363 -2.2269618175488617
-0.2995586440884928 3.846824763855865 -2.266545025666329
-0.4300405284171651 4.00127358303399 -2.39589198235941
-0.5241554821006416 3.35395655584322 -2.987162782194414
-0.5315204339927073 3.3582463337663597 -3.0421709417037217
0.18160786966398904 3.2580808596396595 -3.732793981366486
-0.7730447776778719 4.644057046460375 0.8325729303591217
-1.046488296815673 4.52530383175118 1.1701407896074407
-1.0834442341002888 4.5967615802645305 1.2338712055790468
-1.282509349642098 4.575488060037037 1.4264074594741112
-1.4207247808600558 4.473888616213086 1.47674006288275
-1.4577534188477008 4.415894869056948 1.740567902402651
-1.5031836048410185 4.385236340583692 1.8434658691652568
-1.6859516146044415 4.345918002239616 2.0166258660876983
-1.7360472681382082 4.241110655603661 1.9660284045771932
-1.845103869702744 4.180659525060358 2.1418180017406305
-1.8898785899669275 4.112125765344267 2.26825081784638
-1.9382706634157478 4.0161957543289235 2.3942324078554367
-1.9402418812387854 4.002987214266923 2.3716257851500817
-2.18051752866772 3.852810495669492 2.5489194198272176
-0.7097320928786405 4.878713165714944 1.6368347876573408
-0.5868383127253106 5.02594314145263 1.9050420923367204
-0.46058419984823734 4.908472530534868 1.9379218740190483
-0.3705168226188239 4.915431401423037 2.075166760663486
-0.27138526455871925 5.029198901645294 2.4020285615704817
-0.1844850675362471 5.1197595259842785 2.63616607813537
-0.10244157936810218 5.175363608638286 2.8426910601401407
-0.11963024745667217 5.108854345499965 2.8905183800143606
-0.12420163042926757 5.052973434339701 3.089854895585935
-0.26190310905228503 5.103820866163073 3.6383806666381417
-1.0050444053255998 4.759084295239806 2.3944665641571614
-1.0470572841294705 4.815538483143356 2.497839812545898
-0.9823198965239172 4.64761970684819 2.6899268139144477
-1.0385276743630192 4.713960869241685 2.7804969646430804
-1.1036129540772273 4.765738343695388 2.956872286433195
-1.0541217498602484 4.701542019518249 3.0395795456677215
-1.0786293136408325 4.793358118799128 3.2287118722587076
-1.1101462396167372 4.59379308423728 3.4487688418933566
-1.1581284231681097 4.471964155284594 3.7599153370978198
-2.1299278013796417 3.9134298366289744 2.630382904560042
-2.1539479396441377 3.799247331012912 2.608648929467829
-2.1780947961871098 3.7634433206757665 2.6141091613567133
-2.2449954124116647 3.6549136970815335 2.941879103104745
-2.267933210391386 3.590111208547021 2.9597136276936222
-0.0651796339870994 5.079298611567807 3.147253789075678
-0.06801534286631679 4.992830010974289 3.202309516056137
0.020052274028789834 5.0480655436076125 3.311034079217789
0.09318068445507535 5.051761406022786 3.44034545617817
0.23264406937869783 5.031299788394146 3.7166351940191134
2.313022177916645 4.76956744159122 -0.638695400181614
2.397789740888104 4.752374821265173 -0.6726639463568121
2.686131928280155 4.732586415138589 -0.6451264905525604
3.0089244850382424 4.676552057686687 -0.6843144496235031
3.0640197950034094 4.596076736430121 -0.6928363306897956
3.2291131960008532 4.589299015220736 -0.718892815919933
3.3541195697947117 4.534753380989423 -0.7793531249033008
3.487319533054874 4.552871233938681 -0.8239028165623854
3.5334892334318364 4.3491115656259005 -0.8389453577224182
4.117299483225728 4.1319126146595755 -0.800620275462371
4.1079658106858 4.150553568092113 -0.7836670416682614
4.131149658212406 4.056526512461087 -0.8029633789732556
4.315959987298904 3.904227959837601 -0.7675661574604382
4.347712614435947 3.7416131809102184 -0.7952385209676242
3.745132451215304 4.116832253092844 -0.9797794739379966
4.169081537868047 4.032049199500279 -1.0584366871269855
-1.451098924232654 5.201883365034684 -1.016244936567165
-1.5634330508940857 5.115891001693503 -0.9354989965918179
-1.7383451224284754 5.093723433384167 -1.0470402244714971
-1.8604880029130575 5.004370006331571 -0.8832200692139226
-1.9250311720060171 4.913889914261117 -1.1889510763427282
-2.1114551991922816 4.951899028624424 -1.3200628343588063
-2.2293544606157893 4.825622949270382 -1.3222211136184316
-2.486102585295038 4.614483307605445 -1.4620880441241637
-2.7170313081296724 4.7170890316021765 -1.5478180926308045
-2.7535011699415373 4.721244995070014 -1.6614895845940314
-2.8714588016802005 4.425263172801418 -1.5700655683584208
-2.974039033798038 4.427988816310023 -1.7092275111695685
-3.2110079716140714 4.48545163205242 -1.7283043441381136
-3.28429270863175 4.294572830316006 -1.7726034108464608
-3.693979486752609 3.601038242753553 -1.8395935288125422
-2.6340460418423066 5.099739610188727 -0.8243121197939883
-3.2609951943212407 4.990935999489081 -1.0060581926763927
-3.462942452582302 4.87177142587453 -1.0139044651786844
-3.719389643114913 4.716422149973239 -1.1355434074298463
-3.9325619472175166 4.6115315622938935 -1.2068250568450416
-4.278864318698816 4.419146801548041 -1.257959482720786
-3.3122433525330086 4.112613805225582 -1.9187109464192829
-3.319675225530031 4.003036910532097 -1.847348645957006
-3.5527151149210874 3.793351194798283 -2.1352047551999624
0.6604764315390833 5.6568995573953025 1.5713395205998277
0.6751730672171561 5.74226539715055 1.7248498094662386
0.7724272651996991 5.894441803785812 1.989734059732343
0.719039600645202 6.009291244486839 2.1076041729683523
0.8486395293089524 5.938458327861392 2.2466955978852106
0.9566851637704878 5.937856582726247 2.5045435359297112
1.0593000107455084 5.985440865306246 2.5519574876110034
1.2292395444447302 6.057824499537342 2.924233263064054
1.3449976849077445 6.00462187911336 3.1095305452323054
1.4070913540730245 5.912614567524688 3.2134194800465
1.509323386511641 5.968250089283829 3.218336976256541
1.710083884876335 5.98568146600982 3.345278537452318
1.7499675386845654 5.87439926953343 3.5366341833018904
2.103287014152766 5.6779445376427224 4.007962973845497
0.4569933526983319 5.107511310182447 3.020776607194612
0.5301325065756013 5.070376560987303 3.2439807016964557
0.5070320937037921 4.91389189942412 3.467151169425768
0.627090706920465 4.892150221689321 3.5841061995337506
0.7776813851269166 4.526149849372883 4.082994339136232
0.7395519216632152 4.419284935104642 4.037106793789044
1.1046121582548376 5.9792805362690675 2.890565119862812
1.182988219221871 6.14187851248821 2.8935518774259816
1.1267044940800435 6.1176511895274395 3.1652668874091296
1.016046064210776 6.066827307498911 3.2749419413076732
1.1274787701297624 6.060626599401011 3.576609836475427
1.1440312380478028 6.13852586381721 3.534454166397778
1.0075279570456088 6.140296055798919 4.307511687279503
1.125013137891608 6.078825799720157 3.621181017327749
1.3433412480333495 6.087344744668303 4.133166249225382
0.11503195860578554 6.005219694439495 -1.4210616054203813
0.18632426800860516 5.980794502634382 -1.523536759843871
0.35136206845870077 6.12692393838438 -1.438937080761732
0.39551309471637847 5.920854822748692 -1.6374279316090061
0.7426077366608808 5.947356868915456 -1.7887478665229077
0.7487388471994628 6.008450964585371 -1.8785952040202802
0.7912749906344406 6.026123283403023 -1.8811802474556836
0.8747882665849243 5.800129856474745 -2.0755634374124035
1.0481825739330037 5.762602373355838 -2.2202255126628976
1.0734550031876864 5.78369417315016 -2.298801596473568
1.547736871742761 5.615106135284599 -2.653870517290335
1.6275720622411771 5.567569747475126 -2.6130895795230193
1.6556560253877917 5.583517969811633 -2.7329823180713886
0.6053733812095043 5.955082160267143 -1.7184370797462467
0.7209674295979911 6.032626019918724 -1.7423547019847587
1.3150271867253476 5.976146224671113 -1.9808976660613125
1.8899043401435094 6.017318911259529 -2.19723050493319
2.1259132170535655 5.96310610195918 -2.2948383920669952
0.6486449855210196 6.6281367334291925 -2.510591344406257
0.5736011584997828 6.5638259180371135 -2.6392369711685464
0.5895749811874567 6.7410998520381575 -3.068568334932654
0.6526649953162116 6.854183777513243 -3.289428979097271
0.6248830053193024 6.858749811040601 -3.3641002131031574
1.0864565617606723 5.750811623803019 -2.414252226672082
1.104194060899498 5.694894210266868 -2.349482016674199
1.160655373173952 5.631436934584645 -2.594128630894757
1.2196127363260032 5.524848611691277 -2.5849800892459323
1.1800926066924184 5.4583898961067465 -2.6584102600584125
1.2892177503038118 5.501922268023417 -2.747900824497743
1.137214860120026 5.344469070113405 -2.9800061159884215
1.3323632170107358 6.048041824442528 -2.119514508058133
1.3546906421084062 6.0129313617204545 -2.1190334696299375
1.5100351269248595 5.936677423687875 -2.273187805760935
1.598881689716516 5.8658289662026935 -2.3213443847292816
1.6930142871644893 5.85404211201763 -2.531293235031953
1.604833513818361 5.924439826966324 -2.5992019985066155
1.7334143588703599 5.832504358136542 -2.645546102221402
1.9665598019370343 5.635406497934042 -3.195238265053804
0.9273722491320766 7.196210173735612 -3.8079526420371668
2.1387473108193817 5.481629386741398 -2.9229688963817884
-1.3921743102479849 6.537108464393646 0.6457637413201525
-1.4503330618955075 6.45735755182537 0.6746182382295551
-1.3887037446792514 6.6277287157678115 0.7139228254956057
-1.7187832889139147 6.790343136201169 0.7595893258671746
-2.0915634698879697 6.96665758521365 0.8435540028851167
-2.3356259955156737 7.027132100318894 0.8455537419304167
-2.33778880208187 7.05608005043127 0.9673953879752892
-2.504287994036415 7.06085186536629 1.0282109838536115
-2.6812736424069645 7.169375417039606 1.1176413523060098
-3.053262841262203 7.182302593298285 1.373837377293067
-3.130786442674072 7.308950298339743 0.9419079977880983
1.7290179438839655 6.499500598413322 0.7445649481900709
1.7621132316062258 6.570167327527877 0.7551474937746325
1.900991645642042 6.599008554567326 0.7752562660803605
2.21042903055558 6.582450057557618 0.7008461677277587
2.2623523153485685 6.582716716917215 0.74487084506058
2.307432387149465 6.497336193957536 0.8187376132160141
2.610032308674831 6.466741278566175 0.8159577357058289
2.5921305022346366 6.3031043328013805 0.8659964310542806
2.800881746856562 6.331280380170848 0.8541403256585777
3.448897112328227 6.124565277561775 0.752170457388435
3.508947138742194 6.194070152556708 0.8025256230330885
2.0995245007011754 6.806676351666404 0.4194642908127097
2.1473771295323187 6.783173015007575 0.43160973885840903
2.279056289507063 6.677162518735183 0.3649893755165583
2.2805519918800132 6.764790584590621 0.40496426056940765
2.741884174280306 6.685106986046929 0.4181851575170584
3.973122038837737 6.31286081433558 0.5378494523518268
-0.939190696840994 6.797810991199797 -1.59194270008221
-0.8331928120180512 6.951900642223819 -1.8799814871578324
-0.981118750777208 6.842937586607261 -1.8504544329225285
-1.0234630378680662 6.971641125535918 -2.035534855863778
-0.9634590124324294 6.894965850361286 -2.2060978407410423
-1.159656279199967 6.907363065101508 -2.3402729740376325
-1.202589494485246 6.869168608287873 -2.8067998266155403
-1.1387560686454987 6.935527040413399 -2.9153787600675343
-1.2781782278717084 6.74159170251478 -2.9255238368290826
-2.379937977540339 7.784739585578673 -2.2676968780594953
1.2413377825330445 9.062647633946582 2.9029994773453156
1.1417298894609609 9.186614543486396 2.9656234013469924
1.2568316609271595 9.258392073596168 3.077924773838901
2.117004106665817 8.030804659833425 2.97030946061494
2.181291374820027 8.07056349305902 3.353393746804396
0.22965166597405615 9.468551074619882 -3.2386338961405055
-0.6390725671553787 8.937502261373014 -3.480243162656788
-0.7906787221032431 9.023433459895205 -3.6914258850672574
-0.6293917057389413 9.363506713227501 1.8393596053503405
-0.8478236281517184 9.691554509798939 2.3200967536777446
3.188745370675302 8.935214484810988 -0.12581362047046646
3.877864695402807 9.027414295748802 -0.13719938752952474
2.8741591061272063 9.69264406252078 0.4866312488716882
-1.776991237311573 9.455901180391253 -1.066841569793015
-1.908055298606876 9.534154570843722 -1.1039734097372713
-2.0541314297468003 9.76634773959814 -1.0023646693816037
-2.3662980053074287 10.034851087870365 -0.7973519044347646
-2.444111077356933 10.247583168322672 -0.7838335128747284
-2.5072310896293777 9.65818541438733 -2.1544915492814565
-1.9586521509763732 9.763761892428633 -1.074683851049166
-2.181032589096056 10.367579044831283 -1.296845900280897
0.3237851410262136 9.638206253714335 2.0983177199520435
0.2997776273448473 9.673716409191263 2.1628705909535717
-0.07966704996603804 10.01936686279806 2.5258323603622923
0.09407015642474102 9.95618805345434 2.807664533007182
-2.0507770120496205 9.521602399841708 0.5402078538673146
-2.2378850277197895 9.738193172780116 0.4311692067990258
-2.457821936223107 9.879385998586468 0.3621333808693562
-2.7916315018852242 10.273496209203829 0.12563018634423137
-2.723979997425822 10.359042542348785 0.03957231179067895
-2.573995516915312 10.3598245420212 0.3807087617295547
-2.7218878095947736 10.38770242831991 0.4171855118680824
-2.7242479195790383 10.50789488474834 0.5020905836484556
-2.6188807164330563 10.509905937260369 0.37091224207487916
-2.767110817729586 10.708804148433172 0.2712702086001124
2.557858723646128 9.326109240720836 2.006992848263566
2.801969450543482 9.451155095110341 2.0253674578954555
3.0002172327142387 9.592810713845902 2.0736654452185856
3.1352274992528737 9.791263145961832 2.1179245643732383
3.262986968870606 9.810806627871534 2.1450588878918984
2.6294655090192935 9.076303322469421 2.362119464229389
2.729973021039477 8.951447228664371 3.052791398990464
2.6775246074444716 9.741468396696296 -1.101145781159444
2.8244923352579168 9.71997756076255 -1.0643503916094033
2.8993834816060384 9.815533101512724 -1.0584090199353753
2.8697115579240275 9.981334554086255 -1.1031797274180872
3.0956496806934672 10.076398721679336 -1.0663714904561785
3.208028691751069 10.15966890167176 -1.0433611423296287
1.1380499039452239 10.700342914797748 0.8909088382053266
-1.4386221622171813 9.379817917694227 1.2322896000072636
-1.4897498426480364 9.676895810818454 1.8976349726509651
-1.508590409554207 9.775812866934105 1.9879256026983847
-1.4976133244054244 9.935362176805569 1.9633695555589479
-1.5524586172776582 9.867272826200665 2.1299438126578565
-1.6836778638715995 9.841415187216676 2.286288267783549
-1.672850950203038 9.917841825045144 2.5065417793436793
-1.788520183219546 10.075422603964718 2.4657974051118057
0.9808293959954364 9.163784016805403 2.2028879316577603
1.0531956643552804 9.231822443853362 2.2070126188450545
1.0423189666217423 9.239800243739149 2.279090879575387
1.81823425577109 9.425467716392031 3.1391458555855873
1.3535805573957074 9.37354058776556 2.815366394427125
1.481138662719314 9.277946402616392 3.0128742446975143
1.573005671251432 9.280922768872717 3.5093548927900975
1.639588927858713 9.17883647348106 3.548547346648491
2.3663341558801454 10.087617890807012 1.1430849082741232
-1.7331860888775368 9.175483785705792 -1.3675296227171798
-1.7570959456078736 9.319658937197262 -1.650020309865367
-1.8352046910205617 9.362638766718005 -1.7026333428410871
-1.9432025431075095 9.450429150678309 -1.8071093606145117
-2.1548264270201174 9.515701863305326 -2.0376128156900197
-2.377067636261556 9.752080126956068 -2.2738668582670782
-2.4878220185799074 9.69597145334028 -2.34210579635014
-1.956155434166086 9.746498283691487 -1.1688227207271555
-2.0431743844014743 9.806182356579166 -1.1602741287990543
-2.565529459011735 10.297980753939717 -1.1394385143029437
-0.8985601840483992 10.076704604230404 -3.262456422126917
0.50494600723795 10.273555488634512 -0.786133302738219
0.4114155361726706 10.396314692320203 -0.7115306915374102
1.0504176733206678 10.060869967121159 -0.7499663706287767
1.4243259272525337 10.261105285414656 -1.1580084487956657
1.4353158476343117 10.306369996910163 -1.202663092575734
1.648594884949048 10.302223895916823 -1.2869919266702987
0.7154718539307152 10.480737923569892 -0.7170624171687018
0.7389774815386172 10.802011107774277 -0.7791408076019128
0.7807438502279187 10.785001305550642 -0.8867732555517486
0.9324190899054712 11.055047145129397 -0.9276750579001178
-1.1818934659790086 10.027295175055121 0.2986894392673205
-1.249789428095752 10.547285958444593 0.4617542778329015
-1.39459546806741 10.867216430478754 0.6857649885623742
-1.673386320371449 10.415618605763576 0.04228603416050587
-1.41246088517727 10.987043658104751 0.5646373386020337
2.7934425752523913 9.117549175326035 0.05880451612024523
3.4342284850955362 9.436512326823781 0.16520640195347241
2.7437036161673123 9.751069153537832 -0.46465869422292183
3.1232699670074933 10.07538189727964 -0.494330563918417
3.3480971857415693 10.211726693615839 -0.6717505060460319
2.791188514071999 10.167068920659592 -0.725915292126213
2.849754032694619 10.247240687658643 -0.8117038118275635
-0.9413209075311109 9.830525505649309 1.0373410039275628
-0.97226843818541 9.984880648613181 1.223023414525985
-0.8654120070919253 10.437224350215276 1.2752690866804919
-0.9007685446138585 10.622948638222132 1.4505892051737324
-0.9025428276595411 10.949514764878963 1.443485950652691
-1.078381245591044 9.950531966230669 1.1749747800200123
-1.6886666525622516 10.616292401890872 1.4584499266487438
-0.5633253560346831 9.947557451064956 1.6762063569549714
-0.7020299454812045 10.044279162640894 2.1605730352386936
-0.9884572809312524 10.373767701950618 1.1741153520029448
-1.0234227833105134 10.383259056590466 1.1825030858430425
-1.0536731192135393 10.506885330905074 1.1466738860793808
-1.072959712961868 10.71057307691326 1.0662595572912974
-0.761493708712548 10.765715891259221 1.4189529443921616
-0.691113272406182 10.873227495870161 1.4828042640729833
-1.6133384597786182 10.600084996835953 1.2466446956200825
-1.661517673395659 10.720127657468776 1.2393729846623867
0.31614304000755283 9.812085878202689 2.1629982615240437
0.1413112915419792 9.949672281253847 2.3274968688573314
0.1841918384962076 9.977353514056045 2.600134640639558
-0.047506147001632096 0.2785645893863802 -0.24356497093214954
-0.11714735911149324 0.023351772446386098 -0.22014147171269471
-0.2320547669176584 0.2785617611597923 -0.029049367849183994
0.21607768418058532 0.14569080558783531 0.11651611219473636
0.10844674571333986 0.20722408600685954 -0.12006530846785514
0.017257424052873425 0.5024169569363419 -0.1782796409393098
0.09029589230956152 0.2979881044312677 -0.22799172685354424
0.10523530986708873 0.5324836526343615 0.13145251961620852
0.21738839239763244 0.5499783738522771 0.001769086827936728
0.13316404387551983 0.5354956732566034 -0.1510077807337299
0.10004335762717176 0.35932743578134463 -0.04408933934375234
0.06578066598718305 0.7549665472128589 -0.20114009641151967
-0.32109884293517676 0.6751319872341512 0.05745785521728436
0.039254301414891474 0.8841051214635997 -0.01828626361707089
0.059197767438805525 0.7921042172845043 0.14042756385813407
0.12336773215705235 0.6612916579645007 0.06417259436365563
0.15423361448665296 0.7693718779985819 0.19340022659481004
-0.06494570682134872 1.380239005539597 -0.19079346177963735
-0.13076577900853714 1.379559075143368 -0.0992731130630202
-0.3311440512112297 1.42443636150819 0.11315514995671164
-0.058071945273209476 1.6109490232084454 -0.19222955371392902
-0.17163475642459275 1.6775744209771106 -0.12087726918251501
-0.10282639271062625 1.4752738702190054 -0.17602908266236025
-0.11201618419381237 1.707948695163284 -0.07279203188987773
-0.26682451475598057 1.6613403792121126 -0.12521061938197098
-0.07581805182064394 1.5302334577502477 0.07858765348033955
-0.08523544632082079 1.5827428770417629 0.10773747333276822
0.027992228524153027 1.6931774458109337 -0.28629898880017185
-0.12013817774067899 1.7862097641728636 -0.11890265100608634
-0.18070972935284338 1.7837099711415032 -0.017326831009776097
0.043414446540022876 1.98062424498866 -0.1031482946379577
-0.33395329916391453 2.248882339864503 -0.06829635250525802
-0.3095635388063154 2.0520167874107664 -0.12114973620276803
-0.19062352398827453 2.2336552687254576 -0.014889592628170814
-0.20433816868292684 2.3108690897647852 -0.07059134726405908
-0.2015338850122284 2.0921744935260405 0.0930495370908506
0.025471631585691455 2.178148819271721 -0.09988207424286374
-0.12750833693286137 2.610930201487756 -0.29174022055264337
-0.2330059566709164 2.530111535643137 -0.14425658151878215
-0.3291946766383573 2.60262902960394 -0.062409282787379006
-0.2964487301050386 2.577890993738113 0.007770758646087547
-0.2689897193177833 2.6090675101002683 0.023066749249679677
-0.06642542841587563 2.493987063945989 -0.015637635280600307
-0.018684564105870494 2.4385723816028304 -0.19584527994594028
-0.32876033762820167 2.7862895696313728 -0.1512285409817977
-0.2704799594596381 2.8495440234172387 -0.17650793589806246
-0.29253793907502634 2.74681100113728 -0.028053990910443354
-0.5150327952522965 2.8008863437029277 -0.09515414582398486
-0.4486061138153945 2.8435179504361234 0.05070003047128547
-0.2588129628224184 2.8551546301495923 0.10389222075195141
-0.006727977465903243 2.6851916189860487 -0.12133710547737066
-0.42848154046813297 3.0413543612503453 -0.08612859442025009
-0.3609446007372779 3.0975640726193436 0.15859643166499857
-0.19054152378057332 3.0646509425319373 0.173751945610374
-0.21094765081108507 3.113654527081667 0.03444102743892862
-0.493516680933784 3.2207263656321232 0.062446202211854755
-0.35861142316196803 3.3989309710053153 0.021231567533820384
-0.3087815565185444 3.3732718042723557 0.04452904103596607
-0.33766524444249346 3.292740811558493 0.00665199161288136
-0.4167384613135791 3.6001610310892374 -0.13654176949270702
-0.5231817951611253 3.648545591097295 0.03543509501723657
-0.5303840213411809 3.5593538958875954 0.10542898275131317
-0.390890973140901 3.538997120431588 0.05188405743138221
-0.2955332882299958 3.7231368461467236 0.01640967277495002
-0.3250544641535564 3.650255617203095 -0.07601641494412707
-0.497930970005465 3.8977927237405035 -0.02588451055289047
-0.6077385943659378 3.957263642203326 -0.07634055290820972
-0.6959423291166771 3.9348452039183774 0.10306537416369248
-0.6435977954024168 3.8547754863686556 0.1917440096826224
-0.5948993915750893 3.784741426647831 0.1539978315092902
-0.6063986196434802 4.279719337416002 -0.18602672305307533
-0.6236685315288895 4.162130706636664 0.01474412418395212
-0.5864292325089406 4.2350418672262435 0.110468799279209
-0.6750863820894087 4.096416466275507 0.16982467319272565
-0.5045340302299848 4.2271981025642 0.2681548667119577
-0.4564757877071841 4.11786680498765 0.14043954093643438
-0.5558710326818475 4.094837103337984 0.055298507192503336
-0.5931126049532803 4.402836347058613 0.14271745782104245
-0.6566393991881536 4.4395979460514265 0.1189193507396288
-0.5575180940265231 4.446645237102292 0.1919825481034349
-0.48426588633594114 4.373075884654638 0.23457119260723322
-0.6009700536336757 4.453488304824307 0.10467475344237209
-0.5067108786581206 4.491605836712455 -0.09305617749893826
-0.6517289622441729 4.71775282105231 0.12900298851954278
-0.6824646262914276 4.7584858001115125 0.20801426381172622
-0.8010604167547148 4.809007779392192 0.27363945471555945
-0.5931670736732946 4.602092961018024 0.22816122731222566
-0.6245213346211942 4.849074885706788 0.19029172473142222
-0.5829039752853358 4.7282992265170956 0.1610465695554089
-0.6973157579750489 5.020211398198576 0.20001411482595016
-0.7136724519238571 5.001901799248565 0.14685102294807503
-0.804083951308166 4.90139594031491 0.22230381232835297
-0.852974217334598 5.057214947263677 0.2334990030366929
-0.8242347231827325 5.081605824149574 0.18166848557265797
-0.673609641750572 4.9939602023909 0.2372443982063569
-0.6974276203033787 5.008047145005938 0.30277685721221054
-0.7066061582412817 4.938723302719871 0.13431020658881865
-0.6477233835061701 5.09050763464213 0.10735002848399665
-0.6513075445481801 5.057876526687039 0.17566025759827436
-0.7657169605791206 5.230266043688202 0.27044930907800946
-0.6725237576704393 5.365337639803839 0.3474808417480904
-0.78643834702472 5.517082764047542 0.132293334737233
-0.9076925021579394 5.617197670283966 0.11549125750550242
-0.8988199426772125 5.53995948634931 0.35066872751883277
-0.9385942442648061 5.5998874252532955 0.42691507660224165
-0.8083452648187719 5.557940623097219 0.23872871839979587
-0.8407066744081296 5.615583665160948 0.2008081596926749
-0.6463478612969172 5.690920493364557 0.37247341763872277
-0.70661393915871 5.557761933053103 0.17749165580763626
-0.847225393370533 5.863329366221874 0.2382398698215284
-0.8448476057474205 5.8465925345078755 0.27655978002305315
-0.8238404808349581 5.808957909840459 0.35898450668272597
-0.8693569670249757 5.9091655218568775 0.25878148263687495
-0.9995243836674269 6.091468302519892 0.18589454409959147
-1.1082543844999342 6.206161835555198 0.24573585742730744
-1.0273370902584678 6.095089534139201 0.26932493108043554
-1.065205665144802 6.007516807252203 0.35740005549096804
-0.8836872548788255 6.16668576097009 0.3275436922808512
-0.9124786494900848 6.029990774509214 0.1821583455226519
-1.0425788096671114 6.462826540152891 0.29392771654224187
-1.1803437290071406 6.432982932586546 0.2609089409836889
-1.040550447269718 6.450948861873541 0.2766246405119557
-1.0652174841638369 6.35885219842246 0.26498576534160173
-1.1030509003846147 6.461934568505745 0.4230806634041549
-1.229322046556128 6.706860131536519 0.23508650744663565
-1.1256969236908334 6.538487828849016 0.33657829107977977
-1.185472632320649 6.6840417840385555 0.4734313880857366
-1.0819278174533102 6.518411823374079 0.31083097567658835
-1.0272686321686886 6.7415117668181335 0.3072724529635223
-1.0617423977515394 6.574074647580774 0.2051359930146641
-1.0964835711622731 6.631228096728755 0.27597431643365966
-1.2517317758608664 6.973404838918646 0.3777641320744731
-1.1890467307028574 7.047033457425725 0.38841731275347613
-1.3163364417492247 7.018584273382674 0.299333463876888
-1.2040205037005 6.797734258788939 0.3044947781422757
-1.3664408399596686 6.952807397129641 0.38320896726343323
-1.3493842249879202 6.94950562143499 0.42943806262290307
-1.2255094436632348 6.974318402128191 0.37062908382005766
-1.2353655456676154 7.017666224194598 0.3648296356032153
-1.2812786631936324 6.825536775546276 0.2822204155970122
-1.2163297138687306 7.0504336515008355 0.3145824278282126
-1.3149968763309976 7.275171291353786 0.2921337311192514
-1.3159297201810098 7.241980777180203 0.40595437702466564
-1.287631446473701 7.098413049594132 0.46172220574899697
-1.298178489966818 7.283410425077546 0.4287175722258677
-1.3125629253826014 7.266295256900288 0.3172798571637387
-1.316730766715461 7.217982356358197 0.2505257158472547
-1.3703434428168695 7.460521828988515 0.3046311887974415
-1.3840851701833763 7.478828711667082 0.3714983075221207
-1.5275996757673602 7.47264191407574 0.49490615423252676
-1.4227281961423168 7.467523003160495 0.5235283189789289
-1.3862229921002376 7.447073400097038 0.5220204608111728
-1.4012416435556512 7.441519132203434 0.4037982139862411
-1.3705754988434429 7.513975185696397 0.48051454837471136
-1.329319931328747 7.497909159734888 0.3664220632759421
-1.3616309610272992 7.394102509115875 0.3946895973603118
-1.4737928429656093 7.665301341693003 0.3660151301566232
-1.4931396897540046 7.670357710049241 0.3807320390289454
-1.4382761678329992 7.709006055725359 0.5312515907297773
-1.6051836056175732 7.677395229974124 0.49096973193463106
-1.4405294961574728 7.7022847830468555 0.3409440309263486
-1.6484004069678457 7.968206883823942 0.41153253292073605
-1.590188797007899 7.904775899666969 0.43223599053745143
-1.5150858954636208 8.06208506336299 0.4909626009745365
-1.5628474199414526 7.826927794592475 0.44745222767698895
-1.6245994152077978 7.94438565114644 0.4353067979576827
-1.6357627258753524 7.964848467743904 0.45867886339880987
-1.8550972577571825 8.782213393792237 0.44902619429957846
-1.875064813620762 8.819538434564983 0.5850438011378023
-1.833093090718163 8.691710227480195 0.5045987415300255
-1.848881731776288 8.761388566630304 0.6356063339989846
-0.11198132736383824 1.46057884582507 -0.08693192054542748
-0.06933647921120453 1.4382231643899048 0.23230333002966763
0.011445489776188207 1.3162390873305585 0.04462303055735711
0.17546442005162793 1.3857935001407802 0.07480509456560408
0.1776904499657464 1.3481911406108404 -0.008240628265968969
0.1431759017920919 1.6014789143283155 -0.2741568467432538
-0.05478663427496385 1.7288483231452008 -0.09336794860940043
-0.11526112279707645 1.7778308836004613 -0.005208095177489649
0.007051750969072811 1.60238705655148 0.015889232303512968
0.11246964726028884 1.663865224319569 0.04888700826120629
0.16466530734423757 1.6819439271368606 -0.20278445023678754
0.16068468700582436 1.8986182277042767 -0.09669046721132242
0.05068564180426188 1.9946120118467339 0.1687904396675509
-0.014384957769350639 1.7539399223538663 0.00799338501002432
0.33208265961624805 1.8554899812038843 0.13423549988576855
0.13576363009813652 1.9974275447851217 0.013725654828845614
0.026411993647242817 2.275714136978654 0.25508416902713504
0.21850823220761986 2.2029127175849195 0.4067773018665799
0.3516566544358098 2.178115819011737 0.21719874416050694
0.17914193603778447 2.4983345025607604 -0.008101535197235606
0.03222815275776658 2.639971780537311 0.029262591199955425
0.04708469371647597 2.6153740329916437 0.2039494424645307
0.17324540413792072 2.4582029262497436 0.17548500957042917
0.1838456118186026 2.4019034959016903 0.20104980897912247
0.47677479339166773 2.587246862519506 0.09887469323600871
0.2897641477215671 2.577718333213043 0.060698116872849844
0.2541667783881728 2.9210548543383483 0.04246792690486914
0.19684346487107748 2.830274073292889 0.14170624364156548
0.14443337760249308 2.9387790968231267 0.06416499072062894
0.06307786053132887 2.7946099930722625 0.3696081965422169
0.19272021574765658 2.6526627559297573 0.3299676976434744
0.3214720319167606 2.7089650284905757 0.23692997810665561
0.2853305192081383 2.873355246494422 0.10339596348944512
0.13940408270425445 3.1405720924608764 0.1991721318090626
0.2198807063186785 3.014410384605197 0.241451558822438
0.18514282277609728 2.9737525643079934 0.3987047372908642
0.27114790554914303 2.9084184205490047 0.3901814057049485
0.3459925039486489 2.9054029307234734 0.15761850846902847
0.40641716274826506 3.450205098202334 0.09961164584145422
0.3350036045363807 3.5340717176410372 0.20235157445385688
0.28226053035904136 3.293942231285403 0.4618771782704866
0.4362902300581618 3.2438345728221742 0.37360852620206864
0.45013898129439583 3.2660797909417147 0.3077292475593456
0.42993071493538093 3.3704304236784592 0.24042432062798721
0.12981389629044965 3.4969762145821544 0.2517746889616561
0.3384594529988795 3.547474036846433 0.3748479444414931
0.5659032506290019 3.522223235904662 0.2766480149961787
0.5360129494311461 3.6128070618475614 0.327824457321084
0.5021577130962644 3.613825424014649 0.2023515082640313
0.5250661016361972 3.6647093121399403 0.265099540408927
0.4354555015247295 3.965789253755937 0.3260337436578201
0.4149073551804993 3.8457731533142443 0.3742938378274455
0.3557998075079704 3.853709400543647 0.4558131173555631
0.3968726582925203 3.8295622518330354 0.49802292447843594
0.6022080131602339 3.763862891600305 0.28660391439700905
0.5238585116421923 3.862517262187978 0.3841697296632125
0.497142776638601 3.884449369692807 0.28231695150020597
0.47231614777852254 4.193964008422304 0.4994927792071947
0.474881734604985 4.1846272706955245 0.4879481848713545
0.4471985860229818 4.079269242507795 0.4331438689388454
0.4109087478861615 4.2240970118414545 0.5475852976380309
0.5836330476152407 4.16752025159798 0.4604262772638072
0.5381001606670662 4.056085148340746 0.3062054970930711
0.5176961819967405 4.538840549667426 0.42045371109015756
0.6267642425384728 4.533288816413227 0.550918072287037
0.4712702762803848 4.561447291705864 0.4368121311969738
0.7278494500219795 4.294321541644035 0.6184305196796911
0.6331912002341152 4.360683543171391 0.5702204748180659
0.6795616042129707 4.469212001542489 0.7296218507568287
0.5700359079122039 4.455315741872405 0.4967822183277217
0.5870648726938018 4.334310055872852 0.4601031648360821
0.5611395053194513 4.789793554546431 0.6389188989147799
0.5251980149385865 4.791924428097015 0.5864898266879428
0.4904999500820556 4.767910677516652 0.5973186358012865
0.5474579291711726 4.639468293205164 0.6256859994794794
0.705643994205932 4.784103447894491 0.641866809945513
0.6035206521133625 4.6810381744813565 0.5151986209177931
0.4228177750441585 4.872549298237082 0.7347181395602703
0.548954472066372 5.0561900548551915 0.6608130561238648
0.576576791148371 5.119813466228679 0.5770227668895432
0.6120459731044204 5.319667731883274 0.7992501834636236
0.64937045833963 5.225741376679473 0.753346772363095
0.6705181343894717 5.238155068428095 0.735173047070918
0.9553017529308453 5.209042754823311 0.6362270525869554
0.7577916038834513 5.290982032336348 0.7296717037398343
0.6786148821419395 5.212773029837599 0.6582856064942263
0.6582229017260317 5.461657930262339 0.6663604680308525
0.5504777526667741 5.5266878728237865 0.8286579838785
0.6351325941876674 5.587672496721121 0.9425202796087345
0.7517518237133414 5.489319824730154 0.8100608803454995
0.8303559741463971 5.523594099596556 0.7713443425994523
0.6749510120825819 5.484127482223353 0.782162424889341
0.6366359361272844 5.476874461828213 0.8188865087558139
0.7946362203617106 5.698781329348061 0.8899086300385574
0.7445311012161681 5.840449590591541 0.7474166742332269
0.8044485012901673 5.869503518865027 0.8244234178037059
0.8113815786823042 6.154806552760021 0.8444946424210018
0.7854924539348199 6.013862515236542 0.9254322716597119
0.8187573210690042 5.979428722716214 0.8542814669909192
0.8809310776206221 6.043563149629375 0.7472233730695964
0.9277251550028318 6.130513963467944 0.8763724882690481
0.9170400051063966 6.335690267237345 0.908947056906839
0.9137874877530564 6.236109040723411 1.0173883400215082
0.9147393726903406 6.373189150386685 0.9753852685339802
1.0115007726499836 6.126691835374728 0.8975076331965206
0.9633434796699739 6.349685238205281 0.8725624263703969
0.9571350382113685 6.193610796262991 0.7226272736083776
1.0493853743369117 6.3604988438299594 0.8342246622900006
0.8896261146263069 6.6792872506178504 1.071855413578525
1.0927328902145426 6.5404929242107155 0.8798094563897965
1.068520869899796 6.428104482619226 1.0560783555432627
1.2023735972722123 6.585664761268459 1.011092437189024
0.9627442207003918 6.438142263247147 0.9914849814089335
1.0798537327132887 6.670257985330562 1.0139204893851523
1.229472514765562 6.863845238323549 0.8711085831808315
1.1210370748078202 6.741292489789515 0.9986216895275003
1.0720212603421946 6.841345857803811 1.246405723525792
1.0219993400978045 6.831275854032227 0.9656766018095357
1.2243283468663242 6.89568612354234 1.0373945853855964
1.2393083761257242 6.964175049620401 1.05635635184707
1.515653598079417 7.540229737654285 1.300288998573944
1.441159293730789 7.595059256967269 1.2799980501314103
1.3791959648367316 7.4145753088736805 1.3377401057242024
1.4246589946347756 7.448101217120365 1.3099174515473284
1.432629826593706 7.378424157704611 1.2673198346368932
1.4750853683833482 7.48464630440875 1.3167178991718906
1.5098264307037834 7.524780924944754 1.3062736769114973
1.544151690283062 7.547403921697021 1.2580195039544775
1.4099608000645845 7.717736462419018 1.303083591719033
1.5243250888331799 7.764991890388882 1.3280103346473422
1.6162374975667282 7.719452731045302 1.4101761986603478
1.535714964613035 7.808269789709201 1.3659456122444527
1.6273067301024822 7.68818932580263 1.3409697034636332
-0.25271622555572565 2.632516078280253 0.004952575154758103
-0.13919132285685024 2.596614854774404 -0.012030590881584933
0.0352446282074845 2.4794929817339844 -0.26935416855380984
-0.001141097256080914 2.5533428125338915 -0.4647415664095775
-0.3707086540744624 2.4924587802303835 -0.19336483872012378
-0.2764923665654408 2.6670602671969283 -0.06229143841688829
-0.22753546737098646 2.6833674759190775 -0.11478530515390281
-0.22321059417161754 2.7791335425168993 -0.2478235673499955
-0.2890088795038313 2.5925239664633373 -0.324986206433645
-0.2681159612693573 2.71043321457418 -0.32390985533973143
-0.3952356085409463 2.7730694891208074 -0.24676309724262063
-0.3162214659683385 2.8175932512403303 -0.2720301144271576
-0.4399044528628928 2.5772541427457756 -0.1964318434501203
-0.30708841990972596 2.982896566289187 -0.24512842224686693
-0.23842184063721397 3.092684677746586 -0.22149612907793434
-0.21377680839262567 3.1040070446706873 -0.1098634031071068
-0.19650498268077513 2.958645913961011 -0.1912961305801864
-0.2558757347196511 3.028813289167678 -0.3723013111428009
-0.3366837943690669 2.966537244018465 -0.29761138696179856
-0.1668529002740875 3.470032854559631 -0.26381990457341786
-0.1705948451244806 3.4210983719124726 -0.36398798511513136
-0.42415898810725494 3.246690113116399 -0.34360469696089396
-0.5163761858647452 3.342862943374162 -0.2999539914687225
-0.41001807575256927 3.5693068372942296 -0.27249821283081443
-0.31140758498316773 3.656745983962494 -0.29062282004615075
-0.18539543742802583 3.7517141125355904 -0.2771600146634968
-0.39367614241445154 3.5935724836620317 -0.4160312893919694
-0.3720270715668355 3.601644852433599 -0.5135511169609733
-0.522248500774341 3.678629973904986 -0.44673230379163026
-0.26102673833675016 3.852556934794661 -0.40395921156651016
-0.25771819999694345 3.7906590704517296 -0.5162954642559546
-0.3563909179054269 3.8813451195045108 -0.5970525668574139
-0.49611627502835026 3.898886948360645 -0.495756459356122
-0.15518980803223204 4.108492979870573 -0.40514143536513353
-0.41047563596354075 4.149518702931272 -0.536168625648826
-0.31499663531379785 4.105986306953193 -0.6839944027618263
-0.47837443931653145 4.180943520679195 -0.676223374643687
-0.5742255111759715 4.119154190456701 -0.5765372604889851
-0.6265815554584203 4.470347232564004 -0.4853064179364023
-0.6636759599276281 4.715148491144692 -0.535536196195283
-0.526167119165739 4.550042640571127 -0.6710853708295036
-0.42472491824964087 4.596277530649648 -0.513315928683568
-0.4549899840230503 4.6899974251724945 -0.6633966329384452
-0.3050354285447527 4.646494296515475 -0.615796121453021
-0.5534562333866271 4.680292565469439 -0.7191530107196858
-0.6697375145020548 4.708737437759249 -0.6322639970951008
-0.6370534993682658 5.021538190949059 -0.6861030537604051
-0.6522239118460035 4.88403713127028 -0.8840068990153064
-0.7042872403153901 4.96995388530481 -0.7823815527782093
-0.6916236415659825 5.266807536950009 -0.7639797617465991
-0.7297705194763541 5.237056237527134 -0.6142833158390494
-0.7382666010435726 5.258083963668323 -0.6991111539065582
-0.6886359502795496 5.253477542367816 -0.8070333377593824
-0.687223283827479 5.199530646866104 -0.8842643181410581
-0.798488120030988 5.248992748463855 -0.7637174874616673
-0.9128828311263458 5.5029090992877485 -0.7017128508380152
-0.7134831839545989 5.44770003089258 -0.7052788590679221
-0.6990873736985739 5.5920904139477985 -0.7367274670625831
-0.6891949383247726 5.435318568137307 -0.8353149213443463
-0.7124298024814455 5.398132007123567 -0.9025211967202816
-0.9343355136341858 5.466748198390276 -1.0016347961515037
-0.8258206131965988 5.578782334737248 -0.7055685652458423
-0.9518602962729481 5.804570297234198 -0.8144323213966307
-0.8178927191723144 5.768541506685566 -0.8700552287476289
-0.7250912707991958 5.795955517342351 -0.8438617157160471
-0.7291192861940927 5.822354828923086 -1.125730615495718
-0.8447125813363897 5.781131736633068 -0.9515047480164072
-0.9293602427993002 5.712636975087798 -1.0150633204104915
-0.8880568362933505 5.769735296881738 -0.9740779270592603
-0.7876562900070844 5.68672671421984 -0.9087156385228187
-0.6725257421041566 6.040495087717085 -0.8796447621535796
-0.9245066401137277 6.039112956655661 -0.9818342629671186
-0.9089704086481372 5.999864434468022 -0.9617588443272864
-0.9805398195527137 5.972924165260302 -0.92172976697228
-0.998367259621303 6.1274121753375 -1.0572814951981817
-1.060280283131107 6.2077841076125 -1.0382263273448986
-0.9745497028949185 6.566063679826381 -1.0262591142303257
-0.8831935919954291 6.54666465113046 -1.054830293235746
-1.0872030719830759 6.414886787076328 -1.0849656354781216
-1.123631394820333 6.501224445495984 -1.0717257335733248
-1.224507557857974 6.7524884425465 -1.0836524201253268
-1.1342907280553924 6.62391341828183 -1.268630661065166
-1.1669392790555906 6.930045172169976 -1.131595315764772
-1.0580481517787401 7.124523455114649 -1.1754445362075787
-1.0436756306470856 7.138461174813073 -1.1707351139166158
-1.1722147945036485 7.060183937956121 -1.2507109224911548
-1.1931958708326165 6.986952009200914 -1.2188228113214812
-1.221555767184542 6.985855501952448 -1.2486318455743426
-1.2504480647616378 6.993864820288453 -1.226033058852201
-1.2467551684128384 7.301310558401169 -1.278447609387052
-1.2572074415108352 7.221525958563514 -1.2834863191072967
-1.2741571232038615 7.319463370617436 -1.2740210345004592
-1.3074702006533638 7.214724999459666 -1.2836206538462307
-1.341112397747029 7.3021325594228195 -1.181158664987295
-1.2189039109909645 7.539697308507085 -1.4436984802544697
-1.3050231723987331 7.510311486713515 -1.334703649096708
-1.2486115728316147 7.582559420347616 -1.3706734312488467
-1.3078609789242668 7.432780965342453 -1.4137591038136268
-1.3832455279137383 7.496688236711883 -1.3908835335523448
-1.4332699524977426 7.831734110581936 -1.4904961817788946
-1.2868513837652658 7.848449750312405 -1.5427705311488396
-1.3432644432845398 7.7003791881155905 -1.4883292082064068
-1.4194937829529153 7.822150887167165 -1.540629023661208
-1.4907435868922336 7.767494093551628 -1.4662774023434664
-1.5259214208181593 7.722424939261445 -1.3578756518633013
-1.6185736293478752 8.554953456977723 -1.6934852314352502
-1.6402816329718148 8.487755149622506 -1.724918315287371
-1.6210766294938628 8.468373259704807 -1.7133626463720502
-1.6297415652360683 8.280096949482964 -1.7902623603498018
-1.6309835348857291 8.47037907677771 -1.7650934737814994
-1.6360593445310778 8.413826671009296 -1.7073674539547157
0.20265692029982169 2.502784213361632 0.08337336957499693
-0.045652272605975666 2.599434416498096 -0.09699932639521533
0.14643096944306344 2.479196826823733 0.11999156625298199
0.04280634742862041 2.5826037459963413 0.037618389611092366
0.04260809255540235 2.467386284645605 0.1421961674956084
0.3456679734423345 2.4084401264618873 0.2889047865891027
0.3386904525602786 2.484624088027228 0.07610254122376323
0.1510367993675833 2.375269964817095 -0.05652245970582777
0.18913451486670982 2.855160566170039 0.1494617236033032
0.28762678561568755 2.891517774595875 0.15572076433151316
0.31146505041647765 2.780715160574539 0.08909432464115197
0.5240125253778071 2.8405923227575904 -0.03205843250598996
0.22276020355417675 2.8814026333845133 -0.025027322373134687
0.4073778111860744 3.036658043447283 0.3687864315742718
0.427339428902339 3.1160583338074046 0.007967707406313699
0.3926041871868819 3.0516241312005628 -0.06883002023927262
0.4322500010291527 3.0597732253444145 -0.05344184699752308
0.2797416409710063 3.357570785831078 -0.18116508745559437
0.25878518846330467 3.3383032282945972 0.015888466806062963
0.349554563929427 3.475133535843114 0.15352284560084967
0.5342916745132051 3.38684280009252 0.09716946363819985
0.44258603648108896 3.4113552884170626 -0.1050263897968669
0.434126600766889 3.33287978308395 -0.003393668517604191
0.3978740096390028 3.2302839090368436 -0.09980587537448231
0.2815519299275504 3.603028974372518 0.0416098911877883
0.30125166917402624 3.6397173574913633 0.07253679731940886
0.38454914575156357 3.595861197052713 0.10931049941932665
0.5345310690296988 3.658500324742207 0.003469556884984549
0.5279844213139283 3.6503697564093933 -0.1123018339941501
0.31633059244206363 3.9799309036986403 -0.19057316591592308
0.3129078266341159 3.9219747260218276 0.05300704482926478
0.3381539111318792 3.8396201227685918 0.04506415864277759
0.5239435671073834 3.9202327770906336 -0.12789005166059764
0.4667665277614837 3.9629382098827586 -0.05507851002461685
0.347769029232086 4.205086245567049 0.1255699788504014
0.4809066579258193 4.160975391771866 -0.017266350687537676
0.5978331748040427 4.278139384371775 0.09964987590894879
0.5244591578031114 4.121372316104016 0.015381752938599226
0.6511382271950515 4.180900485704409 -0.17473681450861425
0.46225747603125983 4.4645607637999 -0.09346838588288095
0.5019860213031265 4.585890018838018 -0.1020615176712147
0.4480433620989664 4.499914773565973 0.02753333465774538
0.4977456619166424 4.4894813363640464 0.06858727701123091
0.5798332207717222 4.517394621186394 0.029825724451914254
0.6828680406972912 4.549225916149441 -0.09306484166596146
0.5774759995663894 4.781860843686307 -0.16661080132536407
0.592928860871355 4.83889998378401 0.004631892472218197
0.7143508968688207 4.856187492567459 -0.08026552304305482
0.5564121824908137 4.710166185095305 -0.08020318578338441
0.5977452086494525 4.998932574601561 -0.038708781427409494
0.7091759874595783 4.984943318066344 -0.10099763107326257
0.8450219030524165 5.069066558080357 -0.05118501931770862
0.7426695370353853 5.119509024846869 -0.18518256462621843
0.77527608863107 5.298097092212553 -0.18410761499544057
0.8133843852978798 5.3134975071169865 -0.22274305361605592
0.8637527070477524 5.360597628305193 -0.025087465056794156
0.8552955315203816 5.338731206706015 -0.1560959121430844
1.0043863861478723 5.319001114878715 -0.27594983587417043
0.8488928085642783 5.373685307627251 -0.25256529840253716
0.8754711390403872 5.6578222674812775 -0.2074556849463168
0.7936298999313574 5.6535510372722895 -0.10919424371134673
0.9592757368577718 5.5000657462902245 -0.0921365196638518
0.978996767218469 5.506015537878657 -0.15051525423323575
1.0344786502282852 5.874667053035086 -0.1734222050114087
1.0425378986555651 5.944867340072138 -0.08109652535748824
1.079077846372341 5.920814780430892 -0.06783764744411434
1.1001641915479647 5.754568896302733 -0.13021199937147437
1.016188388310083 5.8592848715436325 -0.1938163534656306
0.989725709820968 5.794986955109081 -0.36168623757027746
1.0451223214783456 5.902186719088534 -0.19862703287847966
0.9553045869442476 6.203471311535371 -0.23790095010702747
1.0372744479420812 6.208063793980321 -0.21415323890643542
1.1767771066220059 6.066666572809632 -0.10230333481676221
1.222906812572834 6.0422954885104385 -0.12284335926588769
1.2109087558047225 6.026084405934814 -0.2366380576203745
1.1122245485845066 5.952608671241634 -0.3175880276123406
1.2928903752555743 6.378732202767457 -0.2972886785005553
1.12139488912764 6.2552909071629745 -0.3551131657421861
1.2096976230139864 6.382745513103534 -0.14398106826070647
1.2572580410366048 6.337653833144853 -0.17835709433704192
1.1375610659710698 6.706755632376493 -0.27257420742262967
1.252231911837103 6.642993296582839 -0.20878363848349246
1.202535227620923 6.459400445106189 -0.10723506491802942
1.2022268617215957 6.528746918489264 -0.1581916194337788
1.377778785623161 6.565835210233003 -0.18941246778427073
1.3223241139735649 6.566913633806277 -0.2595394231110075
1.3362018386452919 6.908629614192047 -0.22873781481317004
1.452196342825449 6.933343386544996 -0.15349241827658586
1.3544939227709447 6.819459155282811 -0.1408746541185611
1.393686292511317 6.760750492258685 -0.19418859178862294
1.5359744156663377 6.89303132141934 -0.29818728516530896
1.5786789627492182 7.065127281228967 -0.22271340943802445
1.4417567928115451 7.180436503982199 -0.32836832242221037
1.3969500023985593 7.118949116813691 -0.27107944751576263
1.5446659733012411 6.960536031239498 -0.23459978179188104
1.7282173261933635 7.673076094985819 -0.27232088895905837
1.6685385207444257 7.701722511218024 -0.35004749646035394
1.7494338043476694 7.674579817559316 -0.27682751495819136
1.6372001396958864 7.567199699232684 -0.40382974203620825
1.6850958479196412 7.8437651573949525 -0.3193947741409718
1.8103799371479203 7.922256952670386 -0.3434974462143142
1.72577881356983 7.734340647731636 -0.2982929530731469
