ply
format ascii 1.0
comment VCGLIB generated
element vertex 1754
property float x
property float y
property float z
element face 0
property list uchar int vertex_indices
end_header
-0.22985 9.92293 0.331971
-0.280321 9.76473 0.364465
-0.191512 9.79137 0.419458
-0.15456 9.8172 0.411565
-0.404039 9.93552 0.657421
-0.406959 9.86383 0.496213
-0.341516 9.74662 0.511688
-0.467118 9.8216 0.594647
-0.343921 9.78059 0.610755
-0.462127 9.92536 0.788073
-0.454745 9.88345 0.86437
-0.528052 9.83342 0.690506
-0.522388 9.84162 0.65957
-0.456951 9.81714 0.805762
-0.794407 10.0075 1.3163
-0.944693 10.0053 1.3234
-0.916295 9.99306 1.27701
-0.887898 9.98084 1.23061
-0.845745 9.91286 1.24114
-0.841293 9.90511 1.3137
-0.841293 9.90511 1.3137
-0.960107 9.97698 1.38798
0.666035 10.7272 -0.20137
0.6413 10.7224 -0.195197
0.615741 10.7058 -0.201118
0.614918 10.6941 -0.213211
0.578563 10.6338 -0.0821903
0.675921 10.5651 -0.203888
2.95972 11.7505 -0.921683
3.05343 11.8373 -0.968514
-1.55577 11.975 -0.815856
-1.57465 11.9951 -0.860396
-2.07237 12.3915 -1.06223
-2.0539 12.3731 -1.13789
-2.07761 12.3337 -1.04906
-2.10507 12.356 -1.07805
-2.15773 12.4097 -1.12036
-2.4629 12.8441 -1.29049
-2.55888 12.9194 -1.32779
-2.54015 12.8848 -1.30787
-2.52021 12.8991 -1.31911
-2.53549 12.8643 -1.35821
-2.73747 13.0512 -1.39164
0.379774 12.5709 0.866428
0.251051 12.5559 0.824606
0.251051 12.5559 0.824606
0.285718 12.481 0.86508
0.460786 12.8829 1.21557
0.455155 12.9184 1.24181
0.416828 12.8339 1.27451
0.390235 12.7873 1.21719
0.403531 12.8106 1.24585
0.459211 12.9418 1.32731
0.448577 12.9301 1.34192
0.442693 12.8814 1.33197
0.517971 12.882 1.35367
0.640283 13.1446 1.54594
0.575272 13.1821 1.52944
0.643181 13.2379 1.71092
0.674863 13.409 1.741
0.658418 13.3706 1.79803
0.621041 13.3536 1.76648
0.704454 13.4931 1.89431
0.70067 13.646 1.91966
0.715575 13.6868 2.01126
0.813803 13.9281 2.13726
0.839089 13.9232 2.19863
0.829063 13.8929 2.17612
0.829326 14.04 2.25899
0.85487 14.0175 2.27692
0.0605983 12.9038 -0.149427
0.0151028 12.8001 -0.193241
0.01712 12.9421 -0.285722
0.279716 13.1698 -0.689879
0.206072 13.1871 -0.659094
0.353678 13.3154 -0.834745
0.379395 13.4395 -0.813562
0.394791 13.5706 -0.919637
0.51975 13.8578 -1.23984
0.593076 13.8299 -1.23677
0.576866 13.8107 -1.26593
0.584971 13.8203 -1.25135
0.663704 14.1233 -1.42229
0.791851 14.3279 -1.60739
0.820285 14.4189 -1.60592
0.845526 14.6507 -1.75316
0.885177 14.6008 -1.74508
0.938711 14.8543 -1.89193
0.941257 14.8165 -1.87266
0.92103 14.8344 -1.92988
-0.0393613 13.6758 -0.039762
-0.0192615 13.6394 -0.0297688
-0.0172793 13.6528 -0.0524023
-0.119648 13.6222 -0.0784705
-0.14605 13.8008 -5.9E-5
-0.203768 13.7132 -0.0283697
-0.181153 13.7042 -0.0628575
-0.15081 13.7133 0.0640363
-0.129287 13.6909 0.0522935
-0.212568 13.8559 0.0582345
-0.18923 13.8457 0.0246598
-0.356265 13.9341 0.0620218
-0.273158 13.9028 0.0529597
-0.352503 13.8943 0.0398903
-0.422734 14.0168 0.100158
-0.515465 14.1589 0.25835
-0.555543 14.2387 0.191548
-0.555543 14.2387 0.191548
-0.573692 14.2291 0.184153
-0.595078 14.2111 0.19572
-0.661907 14.3695 0.234318
-0.802101 14.7069 0.372544
-0.92203 14.7757 0.459157
-0.932768 14.9322 0.491339
-0.937521 14.9412 0.438558
-0.967156 14.9158 0.496998
-1.04942 15.0413 0.510476
-1.08268 15.1732 0.495365
-1.14367 15.4817 0.579882
-1.1872 15.5901 0.541601
-1.24652 15.7377 0.585728
-1.22241 15.7023 0.620355
-1.2461 15.6969 0.61321
-1.24987 15.8052 0.591989
-1.28004 15.8624 0.651378
-0.0853682 14.3573 -0.105436
-0.0787117 14.3482 -0.08469
-0.0590752 14.321 -0.0230662
-0.00209225 14.3122 -0.125007
0.0138345 14.4737 -0.0824208
-0.0177025 14.4067 -0.0250527
-0.0303495 14.4249 -0.0653182
0.0792517 14.5397 -0.0722633
0.127766 14.5054 -0.051964
0.131464 14.631 0.0497623
0.228959 14.6698 0.00787225
0.221931 14.7592 -0.025009
0.174799 14.7723 0.019223
0.261178 14.7608 0.0560428
0.247248 14.7301 0.0493932
0.28244 14.8546 0.0830525
0.285318 14.9791 0.103169
0.434886 15.2027 0.0938595
0.478812 15.4515 0.100032
0.580669 15.618 0.145872
0.600922 15.6821 0.166327
0.585871 15.8525 0.130928
0.568936 15.8244 0.133671
0.60317 15.8195 0.135779
0.593939 15.9399 0.139838
0.620094 15.9927 0.198057
0.602591 15.9343 0.199681
0.618718 15.9362 0.16087
0.600158 16.0578 0.211821
0.619469 16.2624 0.216025
0.646636 16.2554 0.147076
0.62676 16.3256 0.200738
0.616636 16.3266 0.176797
0.656932 16.4416 0.202921
0.690966 16.4311 0.161231
0.689909 16.402 0.175256
-0.0653097 15.0946 -0.158106
-0.0089195 15.3624 -0.110464
-0.0520045 15.3926 -0.125095
-0.0227958 15.5444 -0.106505
-0.00838675 15.5444 -0.100776
-0.0834535 15.573 -0.080854
-0.0456203 15.5434 -0.0491445
-0.0646488 15.934 -0.0651505
-0.0708867 16.027 -0.125765
-0.0841045 16.3555 -0.087791
-0.0970878 16.7417 -0.118874
-0.0823398 16.8054 -0.114349
-0.123642 16.8932 -0.0788738
-0.193341 17.2164 -0.103552
-0.262265 2.51996 -0.219032
-0.327665 2.57465 -0.197269
-0.328794 2.51962 -0.197828
-0.157958 2.7406 -0.248598
-0.156828 2.79563 -0.248038
-0.292142 2.68488 -0.206751
0.075455 2.76932 -0.32253
-0.059859 2.65857 -0.281243
-0.218601 2.79698 0.248007
-0.262698 2.7137 0.11411
-0.262698 2.7137 0.11411
-0.349199 2.62969 -0.152843
-0.327432 2.65757 -0.0860347
-0.285593 2.63079 0.0467422
-0.32461 2.79514 -0.0846353
-0.282206 2.79588 0.0484214
-0.350328 2.57466 -0.153403
0.112527 2.744 0.255206
0.179055 2.74434 0.234002
0.0451786 2.63351 0.2798
-0.186439 2.79752 0.348927
-0.0882876 2.57775 0.323902
0.19317 2.52213 -0.327541
0.193733 2.49459 -0.328181
0.223847 2.57776 -0.226471
0.242796 2.68828 -0.157386
0.261746 2.7988 -0.0883016
0.208742 2.79788 -0.254622
0.179191 2.68718 -0.356971
0.295801 2.6892 0.00893475
0.2852 2.68902 -0.0243294
0.282948 2.79917 -0.0217732
-0.224429 2.96059 -0.223646
-0.320265 2.9878 -0.192624
-0.187697 3.18146 -0.231533
-0.314521 3.26374 -0.18968
-0.250247 3.26399 -0.210165
-0.317967 3.09817 -0.191447
-0.285256 3.12589 -0.201395
0.070547 3.23767 -0.312883
0.0699726 3.21008 -0.313178
-0.318804 3.12598 -0.0844987
-0.307413 3.18129 -0.0517729
-0.339288 3.12575 -0.148773
-0.31823 3.15358 -0.0842043
-0.343883 2.905 -0.151128
-0.32225 2.96042 -0.0862649
0.170503 3.23932 0.222922
0.20264 3.23945 0.212679
0.137505 3.1291 0.236495
0.0410939 3.12871 0.267222
-0.151081 3.21052 0.326178
0.172507 3.01771 -0.3492
0.232853 3.0735 -0.15507
0.189674 3.18323 -0.281003
0.18109 3.10047 -0.315101
0.281299 3.21181 0.00888419
-0.280126 3.48365 -0.196723
-0.156087 3.48383 -0.236255
-0.214239 3.67226 -0.214363
-0.182584 3.70373 -0.223892
-0.308557 3.60928 -0.185423
0.0661389 3.73552 -0.302601
0.00347469 3.704 -0.28319
-0.0598342 3.64107 -0.264132
-0.208509 3.73475 0.229005
-0.218392 3.73476 0.197995
-0.248041 3.7348 0.104966
-0.259213 3.67197 0.0732474
-0.269741 3.64057 0.0418832
-0.270386 3.60915 0.0415288
-0.267807 3.73483 0.0429463
-0.332263 3.48354 -0.145948
0.162321 3.70405 0.215222
0.0684342 3.61004 0.247189
0.037996 3.67258 0.255527
-0.0248808 3.57861 0.277611
-0.0561763 3.54727 0.288267
-0.087186 3.54722 0.29815
-0.0556048 3.60985 0.286721
0.0678627 3.54745 0.248735
-0.0886148 3.39076 0.302014
-0.0880433 3.45334 0.300469
0.17645 3.32831 -0.310879
0.204652 3.42229 -0.215708
0.232853 3.51627 -0.120537
0.193321 3.51632 -0.244577
0.210193 3.70433 -0.178274
0.259125 3.73561 -0.0225116
-0.173974 4.20619 -0.215606
-0.112758 4.08076 -0.237947
-0.143003 4.11213 -0.2276
0.0362916 4.11197 -0.284743
-0.0832381 4.11207 -0.246648
0.0348401 4.23734 -0.28145
-0.249138 4.17401 0.0747076
-0.220162 4.20488 0.163691
-0.287233 4.17458 -0.0448211
-0.268185 4.1743 0.0149433
0.285892 3.86054 0.172872
0.28517 3.89176 0.172568
0.250232 4.1103 0.179961
-0.0799191 4.17302 0.284116
-0.0813635 4.23545 0.283508
0.041055 4.11048 0.246629
0.163531 4.26844 -0.28884
0.194268 4.17437 -0.198281
0.21476 4.11165 -0.137908
0.301918 4.04795 0.13164
0.254299 4.04866 -0.0177706
0.288061 4.23539 0.0999321
0.301195 4.07917 0.131336
0.249966 4.23595 -0.0195964
0.260212 4.20459 0.01059
0.258768 4.26702 0.00998138
0.287203 3.86094 0.0737017
0.285037 3.95459 0.0727887
-0.166249 4.65485 -0.205382
-0.166814 4.70993 -0.203593
-0.108175 4.59964 -0.225501
-0.050665 4.59951 -0.243831
0.0652018 4.51664 -0.283174
0.0364468 4.5167 -0.27401
0.0660485 4.43401 -0.285859
-0.187633 4.40479 0.251306
-0.19534 4.48757 0.220776
-0.174097 4.65239 0.274734
-0.174583 4.62486 0.275326
-0.248382 4.59881 0.0458809
-0.267197 4.57165 -0.0110365
-0.256089 4.6816 0.0153506
0.217554 4.37649 0.185955
0.0954757 4.67921 0.220054
0.154269 4.62409 0.20219
-0.0195443 4.67946 0.256714
0.197879 4.59832 -0.159701
0.288238 4.65146 0.127379
0.269268 4.67933 0.0696371
0.289521 4.59646 0.127844
0.256715 4.43223 0.0142227
-0.103264 5.12225 -0.211963
0.0917719 4.95688 -0.278878
0.0641442 4.95693 -0.270073
0.119126 4.98433 -0.286804
0.12159 4.73679 -0.29472
0.0923194 4.90187 -0.280637
-0.179099 4.84533 0.244016
-0.170294 4.84523 0.271643
-0.187904 4.84544 0.216388
-0.219663 5.03886 0.10163
-0.221641 4.92858 0.104058
-0.165843 5.09335 0.266182
-0.209375 5.12146 0.127437
-0.201064 5.09378 0.155672
-0.184937 5.01086 0.212747
-0.237768 5.0115 0.046982
-0.23579 5.12178 0.0445548
0.125923 4.89964 0.206769
0.122126 5.06513 0.205284
0.289158 5.00967 0.152946
0.0398761 5.0377 0.231948
0.0116156 5.06533 0.240506
0.0386104 5.09286 0.231453
0.216185 5.12087 -0.0690641
0.228155 4.98285 -0.0401993
0.269016 5.12022 0.0967013
0.26211 5.03758 0.0698161
0.267805 4.78934 0.072043
0.267172 4.81692 0.0717956
0.265907 4.87208 0.0713007
0.283517 4.87187 0.126556
0.0082265 5.55571 -0.237985
0.115914 5.39938 -0.27566
0.0619015 5.49318 -0.256434
0.0884019 5.49317 -0.26488
0.00755225 5.61823 -0.236429
-0.0189481 5.61824 -0.227982
0.0910989 5.24311 -0.271105
-0.0162511 5.36817 -0.234208
0.142751 5.36812 -0.284885
-0.22646 5.55581 0.0448843
-0.226891 5.52443 0.0455927
0.230905 5.24185 0.167554
0.197442 5.556 0.17251
0.0119398 5.55607 0.231632
0.18334 5.58685 -0.144681
0.182644 5.61826 -0.14503
0.244551 5.49295 0.0418681
0.250909 5.58724 0.0673212
0.261444 5.49305 0.0948687
0.285298 5.179 0.15136
0.221302 5.39856 -0.0365857
0.247336 5.36729 0.0432643
0.264228 5.36739 0.0962649
-0.25618 5.7745 -0.149879
-0.179377 5.80579 -0.173902
-0.176641 5.93068 -0.172952
-0.0977864 6.05564 -0.196262
-0.148532 6.0556 -0.180088
-0.274029 6.11793 -0.139178
-0.199962 6.02433 -0.164152
-0.199962 6.02433 -0.164152
-0.0477246 6.02446 -0.212673
-0.194532 6.05753 0.11407
-0.209337 6.11956 0.0638008
-0.253189 5.96243 -0.0642492
-0.213441 5.93223 0.0623747
-0.212073 5.99467 0.0628501
-0.260592 5.99345 -0.0893838
-0.264696 5.80611 -0.0908099
0.0586986 6.12121 0.203212
-0.0967831 5.80731 0.260637
-0.121832 5.83866 0.267833
0.14603 5.77466 -0.250121
0.167185 5.99405 -0.169826
0.159099 5.99384 -0.195198
0.176159 5.93174 -0.145648
0.157769 6.08761 -0.193408
0.134839 5.99323 -0.271315
0.239078 6.05839 0.0597184
0.214818 6.05778 -0.0163985
0.223791 5.99547 0.00778006
-0.247225 6.23171 -0.146291
-0.246601 6.25922 -0.146166
-0.173239 6.28683 -0.169223
-0.146495 6.39689 -0.176449
-0.0948809 6.5345 -0.191277
-0.0967548 6.45198 -0.191654
-0.191239 6.56187 -0.160241
-0.216734 6.50682 -0.152764
-0.0936316 6.58951 -0.191026
-0.241604 6.47928 -0.145162
0.001477 6.50713 -0.222314
-0.0476389 6.47955 -0.206984
-0.0476389 6.47955 -0.206984
-0.178978 6.56451 0.129633
-0.178978 6.56451 0.129633
-0.211135 6.5085 0.0324034
-0.256873 6.53451 -0.112938
-0.256017 6.23218 -0.0900744
-0.246416 6.31495 -0.0654533
-0.230962 6.31545 -0.0169642
-0.0683071 6.4556 0.232809
-0.142105 6.34529 0.260001
0.139846 6.17727 -0.243602
0.152787 6.31537 -0.192689
0.143552 6.39768 -0.21548
0.189914 6.39917 -0.0700123
0.182187 6.39893 -0.0942569
-0.262722 6.61687 -0.136781
-0.237718 6.69968 -0.143698
-0.189596 6.78251 -0.157983
-0.140217 6.92052 -0.171967
-0.118984 6.83777 -0.179787
-0.208943 6.94804 -0.149711
-0.23269 6.92042 -0.142494
0.0222401 6.9483 -0.223395
-0.0452292 7.03099 -0.200838
-0.188238 6.97687 0.0732373
-0.23559 6.83805 -0.0662231
-0.239186 7.00346 -0.0884377
-0.231818 7.0036 -0.0653198
-0.234332 6.89323 -0.065922
-0.238732 6.70008 -0.0669759
0.0715823 6.92335 0.172953
0.117819 6.92341 0.158216
0.0487336 6.95081 0.179345
-0.114173 6.84068 0.234828
-0.0660491 7.03315 0.213259
0.15056 6.78349 -0.164535
0.148565 6.89383 -0.162495
0.131834 7.00388 -0.206691
0.125463 6.94857 -0.230829
0.133829 6.89354 -0.208731
0.205515 7.00532 0.0244883
-0.227821 7.18795 -0.13996
-0.139161 7.21936 -0.167681
-0.138464 7.2508 -0.167367
-0.181054 7.3137 -0.15272
-0.113688 7.37656 -0.173118
-0.136375 7.34512 -0.166424
-0.137768 7.28224 -0.167052
-0.220857 7.50236 -0.136815
0.0430346 7.50226 -0.220923
-0.00164375 7.47083 -0.20722
-0.152429 7.47001 0.155761
-0.193786 7.50188 0.0241301
-0.186777 7.50181 0.0461211
-0.217598 7.37632 -0.0431004
-0.240714 7.28221 -0.110017
-0.197268 7.34467 0.0225579
-0.223214 7.43928 -0.0644625
-0.224607 7.37639 -0.0650914
-0.221776 7.18768 -0.0449871
-0.240714 7.28221 -0.110017
-0.226696 7.28207 -0.0660347
0.06791 7.53261 0.159281
0.111892 7.53259 0.145263
-0.0660591 7.3453 0.206211
-0.0670707 7.25163 0.208649
0.121453 7.18814 -0.227057
0.135471 7.188 -0.183075
0.14248 7.18793 -0.161084
0.133316 7.34503 -0.179706
0.126738 7.31369 -0.202371
0.16049 7.40756 -0.0903951
0.117575 7.47079 -0.220993
0.139033 7.43918 -0.155694
0.187233 7.5015 -4.10187E-4
0.175801 7.3132 -0.0484348
0.174939 7.37601 -0.0470872
0.16793 7.37608 -0.0690781
-0.144006 7.94255 -0.148992
-0.0177947 7.81662 -0.192844
0.0646288 7.94203 -0.215493
0.0435078 7.97348 -0.207855
0.00126581 8.0364 -0.192579
0.0666893 7.6908 -0.223396
0.0878103 7.65934 -0.231034
-0.133599 7.72034 0.198501
-0.157135 7.90887 0.112053
-0.162254 8.00284 0.0896908
-0.156625 7.9401 0.111553
-0.208795 8.00487 -0.0563423
-0.176571 7.94097 0.0489672
0.155551 7.71981 0.129322
0.217524 7.75084 0.109231
0.13407 7.75105 0.135831
0.0696263 7.84476 0.155358
0.192337 7.96918 0.114894
-0.0169159 8.00089 0.181253
0.155213 7.87819 -0.0790904
0.161862 7.8779 -0.0582285
0.159392 8.00263 -0.0587925
0.180573 7.93939 0.00407531
0.212583 8.00031 0.108103
0.193254 7.97 0.0456582
0.211492 7.71995 0.0885101
0.0656646 8.11891 -0.209695
0.0653672 8.17404 -0.207327
0.0255974 8.22926 -0.192377
0.0650698 8.22916 -0.204958
-0.127521 8.06018 0.194325
-0.136386 8.22591 0.153038
-0.141438 8.28126 0.132697
-0.1402 8.33628 0.132091
-0.150303 8.44699 0.0914104
-0.138962 8.3913 0.131485
-0.195564 8.39433 -0.0461198
-0.176697 8.39332 0.0130816
-0.177935 8.3383 0.0136881
0.190703 8.11409 0.114421
0.190703 8.11409 0.114421
0.190195 8.14161 0.114477
0.150214 8.16921 0.127115
0.168934 8.2242 0.120936
0.189178 8.19664 0.114589
0.128444 8.27932 0.13363
0.0656767 8.47207 0.152894
0.00799344 8.38966 0.171598
-0.0122512 8.41722 0.177945
0.0277296 8.38961 0.165307
0.116291 8.44894 -0.16747
0.122071 8.47612 -0.14768
0.12258 8.44861 -0.147736
0.142464 8.39256 -0.0886471
0.174418 8.36337 0.00996612
0.175943 8.28082 0.00979775
0.173401 8.4184 0.0100784
0.196845 8.16975 0.0687749
0.203134 8.16941 0.0885087
-0.0677431 8.88903 -0.136743
-0.0665881 8.75165 -0.142331
-0.0665881 8.75165 -0.142331
-0.0854282 8.7791 -0.135283
-0.04821 8.77915 -0.147144
0.0815919 8.83431 -0.186423
0.0436806 8.91668 -0.171209
0.0443736 8.83425 -0.174562
0.0253025 8.88918 -0.166396
0.00646238 8.91663 -0.159348
0.00877238 8.64185 -0.170524
-0.116805 8.52782 0.190166
-0.108186 8.66564 0.206936
-0.11358 8.69338 0.187959
-0.125978 8.66608 0.15111
-0.149163 8.69425 0.0763076
-0.14755 8.77703 0.0752044
-0.116823 8.83149 0.167512
-0.169123 8.88799 -7.01125E-4
0.182273 8.61006 0.114752
0.0856901 8.77592 0.144359
0.0676705 8.74823 0.150297
0.178736 8.77606 0.114706
0.160127 8.77604 0.120637
-0.0271438 8.83109 0.179927
0.0298627 8.77584 0.16215
0.0275044 8.88651 0.16212
0.111959 8.88881 -0.151776
0.13034 8.8607 -0.0959425
0.147542 8.88793 -0.0401243
0.145149 8.72207 -0.0586868
0.168282 8.74916 0.01574
0.161761 8.77697 -0.00287631
0.186663 8.72105 0.0715736
0.159403 8.88764 -0.00290706
0.1902 8.55504 0.0716197
0.181911 8.66586 0.0529803
0.187842 8.66571 0.0715889
-0.134287 9.32073 -0.106299
-0.13479 9.35195 -0.105509
-0.0818435 9.32117 -0.123013
0.00656875 9.25947 -0.15245
0.0425372 9.19733 -0.165173
0.0590125 9.25992 -0.169163
0.0815238 8.94784 -0.182639
0.0810208 8.97906 -0.181849
0.0445493 9.07243 -0.168335
0.0620305 9.07258 -0.173906
0.026062 9.13473 -0.161183
0.0795117 9.07273 -0.179477
-0.108126 9.00804 0.184057
-0.113696 9.00788 0.166575
-0.134919 9.13287 0.0938651
-0.14553 9.19537 0.0575101
-0.139432 9.25834 0.0735998
-0.144473 9.32099 0.0547263
0.171734 9.10344 0.112289
0.135044 9.1662 0.122758
0.151661 9.19787 0.11685
0.0983542 9.22895 0.133227
0.0765546 9.38644 0.137116
0.0284294 9.22836 0.155512
0.103463 9.38512 -0.141053
0.177599 9.32412 0.0868801
0.172029 9.32396 0.0693986
0.16089 9.32365 0.0344354
0.184896 9.26122 0.105035
-0.105174 9.60198 -0.113395
-0.137007 9.72589 -0.103043
-0.120437 9.75727 -0.108276
-0.0554657 9.69613 -0.129092
-0.168621 9.88091 -0.0927106
-0.103432 9.85088 -0.113546
-0.00532138 9.85251 -0.144827
-0.0554657 9.69613 -0.129092
-0.0550301 9.75836 -0.12913
-0.005757 9.79028 -0.144789
-0.0380249 9.85197 -0.1344
-0.127705 9.88532 0.0923618
-0.154607 9.75874 0.0106833
-0.155043 9.69652 0.010721
-0.174996 9.81927 -0.0547578
-0.164584 9.82012 -0.0220561
-0.16112 9.57164 -0.00555431
-0.160902 9.60275 -0.00557319
-0.187151 9.56951 -0.0873084
-0.176303 9.63259 -0.0546445
0.0467313 9.70133 0.135223
0.0465854 9.73271 0.134073
0.0297958 9.82658 0.135838
-0.083353 9.54226 0.182679
-0.0180919 9.57473 0.160675
0.0936672 9.69829 -0.140602
0.0979617 9.72995 -0.123912
0.12061 9.66919 -0.0591868
0.110197 9.66834 -0.0918884
0.0839026 9.85404 -0.155259
0.103816 9.88698 -0.0895168
0.135964 9.8583 0.00824931
0.128287 9.76374 -0.0254688
-0.10892 10.1603 -0.114439
-0.0938218 10.2704 -0.120471
-0.14163 10.3283 0.0450572
-0.146349 10.218 0.0310131
-0.165724 10.2159 -0.0298691
-0.16088 10.2164 -0.0146486
-0.175349 10.1599 -0.059722
-0.170693 10.3251 -0.0462662
-0.165849 10.3257 -0.0310456
-0.180256 10.2143 -0.0755308
-0.156162 10.3267 -6.045E-4
-0.175224 10.0501 -0.0585455
7.77062E-4 10.2238 0.124443
0.00156444 10.1687 0.127291
-0.0609038 10.2777 0.141015
-0.104999 10.1666 0.161278
-0.0601164 10.2226 0.143863
-0.0312444 10.3335 0.128455
-0.102637 10.0012 0.169824
-0.0874137 10.0015 0.164969
0.0710746 10.0535 -0.170611
0.0710746 10.0535 -0.170611
0.0821269 10.1375 -0.124757
0.0763285 10.2749 -0.124436
0.0738041 10.2194 -0.139785
0.123607 10.3078 0.0278339
-0.171264 10.4616 -0.0982358
-0.128996 10.4899 -0.112097
-0.101013 10.7112 -0.124125
-0.0868079 10.6009 -0.127099
-0.0868345 10.6285 -0.127479
-0.157406 10.7104 -0.10615
-0.143254 10.6554 -0.109883
-0.0164764 10.7676 -0.151848
-0.0305214 10.7122 -0.146594
-0.118385 10.7994 0.113124
-0.136224 10.6872 0.0582637
-0.158683 10.7126 -0.0125916
-0.172036 10.6008 -0.0533568
-0.172169 10.7389 -0.0552568
-0.171876 10.4351 -0.0510768
-0.17193 10.4904 -0.0518368
-0.176469 10.5452 -0.0666919
0.0697632 10.775 0.0703049
0.0556649 10.7748 0.0747987
0.0282363 10.7193 0.0867974
0.0156738 10.609 0.0973132
-0.0125227 10.6086 0.106301
-0.113514 10.7724 0.128725
-0.0289246 10.7736 0.101762
-0.0673799 10.4977 0.130298
-0.0677639 10.5253 0.128793
-0.0391834 10.4981 0.12131
0.0635948 10.6602 -0.11373
0.0759025 10.6891 -0.0714633
0.0747508 10.7166 -0.0714819
0.0500148 10.7694 -0.141994
0.051287 10.6314 -0.155997
0.0859068 10.7729 -0.0292338
-0.145095 11.0134 -0.112592
-0.132598 10.9504 -0.116182
-0.119387 10.982 -0.120584
-0.131169 11.1393 -0.117806
-0.117004 11.2968 -0.123291
-0.170565 11.0762 -0.104869
-0.170088 11.1392 -0.105411
-0.0528529 11.2026 -0.143138
-0.0523764 11.2656 -0.143679
-0.0787993 11.2025 -0.134874
-0.128889 11.2052 0.0668102
-0.14128 11.2045 0.0278955
-0.157802 11.2035 -0.0239907
-0.149541 11.204 0.00195238
-0.154625 11.0778 -0.00993669
-0.154386 11.1093 -0.0102073
-0.154386 11.1093 -0.0102073
-0.162886 11.0774 -0.0358798
-0.178454 11.2024 -0.0888486
-0.17067 11.1399 -0.0623642
-0.1748 11.1396 -0.0753358
-0.166063 11.2031 -0.0499339
-0.180122 10.982 -0.0869542
0.0272748 11.207 0.0636461
0.0272748 11.207 0.0636461
0.00109294 11.2695 0.0691214
-0.101867 11.0502 0.111934
-0.0761567 11.1128 0.100882
-0.0765102 11.2067 0.0967001
-0.0635371 11.2067 0.0925684
-0.0753321 10.8939 0.110641
0.0395863 10.9529 -0.156774
0.0369259 11.0469 -0.1565
0.0265878 11.266 -0.168831
0.0283614 11.2033 -0.169014
0.0844131 11.2693 0.0127704
0.0811695 11.2377 -2.92562E-4
0.064648 11.2368 -0.0521788
-0.134079 11.7371 -0.113756
0.021158 11.642 -0.164059
-0.039724 11.7678 -0.143501
0.012203 11.4228 -0.163267
-0.128381 11.5192 0.0501055
-0.137564 11.7067 0.0082045
-0.133792 11.7068 0.0200505
-0.133792 11.7068 0.0200505
0.0657801 11.3948 0.0442474
0.0390016 11.5196 0.0489898
0.002692 11.551 0.0596037
0.0706815 11.6751 0.0341756
-0.0240865 11.6758 0.0643461
-0.0477785 11.676 0.0718887
0.0772125 11.7373 0.0171581
0.0779841 11.7062 0.0178582
0.0688974 11.7684 -0.00723394
0.0621255 11.7371 -0.0302259
0.0818422 11.5503 0.0213585
0.0708075 6.7568 0.0212307
0.344367 6.66453 -0.454982
0.415028 6.63098 -0.381027
0.463648 6.70107 -0.505367
0.463648 6.70107 -0.505367
0.357462 6.64339 -0.492237
0.47086 6.58162 -0.536211
0.56961 6.67227 -0.591621
0.786231 6.59945 -0.772881
0.775801 6.62538 -0.890904
0.872027 6.65044 -0.907122
0.944808 6.56036 -1.02679
1.09899 6.61331 -1.11425
1.16799 6.63432 -1.20397
1.23122 6.62938 -1.24762
1.38679 6.6692 -1.3891
1.42706 6.71686 -1.48331
1.46061 6.69473 -1.45437
1.54544 6.7133 -1.51995
1.53998 6.70331 -1.52872
1.5671 6.70332 -1.61539
1.68776 6.78334 -1.69239
1.68602 6.75486 -1.70464
1.68988 6.75503 -1.75272
1.92172 6.90475 -2.02684
1.95167 6.90744 -2.05327
1.92825 6.87336 -2.03302
-1.66339 7.43424 0.180229
-1.6224 7.41543 0.192856
-1.7485 7.40831 0.186968
-1.71618 7.35726 0.13548
-1.87995 7.40899 0.12079
-1.83101 7.41946 0.193838
-2.36023 7.54428 0.131752
-2.53472 7.66416 0.181982
-2.58358 7.65622 0.134939
-2.55722 7.60757 0.146502
-2.47565 7.58912 0.20878
-2.58956 7.6343 0.206683
-2.71886 7.68296 0.212841
-2.88497 7.76627 0.231423
-3.00413 7.82909 0.211145
-3.19453 7.87522 0.286931
-3.19969 7.88644 0.243443
-3.19969 7.88644 0.243443
-3.11869 7.86842 0.235087
-3.20489 7.85114 0.278802
-3.40427 7.96597 0.311904
-3.31985 7.93719 0.278667
-3.37842 7.91366 0.280372
0.173533 8.29193 0.0115391
0.0353576 8.32716 0.119101
0.115937 8.34261 0.143493
0.0593761 8.21227 0.0999784
0.0528291 8.22592 0.112379
0.1884 8.22944 0.0588588
0.011062 8.19847 -0.00611125
0.319971 8.30692 0.194343
0.313598 8.32007 0.206223
0.339088 8.26746 0.158705
0.251474 8.3111 0.244692
0.228404 8.15595 0.192532
0.286708 8.14492 0.23661
0.202914 8.20856 0.24005
0.322237 8.2012 0.163305
0.302801 8.1749 0.181998
0.186191 8.16698 0.127228
0.391764 8.25285 0.381374
0.353359 8.23115 0.384993
0.414307 8.14081 0.284729
0.657651 8.23827 0.440884
0.497325 8.11366 0.395828
0.573112 8.09508 0.438663
0.654955 8.17953 0.391777
0.66075 8.1525 0.427903
0.644376 8.12804 0.446316
0.814398 8.25028 0.597707
0.786542 8.22985 0.545733
0.782635 8.14312 0.677774
0.637455 8.17303 0.596764
0.65206 8.18375 0.622621
0.659253 8.17197 0.613355
0.728882 8.18555 0.435601
0.756663 8.15995 0.488962
0.770553 8.14715 0.515642
0.827243 8.13221 0.577531
1.13715 8.19626 0.992304
2.97707 8.89209 2.24385
-0.120952 9.01841 -0.0533816
-0.0293556 8.89723 -0.0624336
-0.134275 9.02777 -0.320212
-0.174104 8.9934 -0.390744
-0.15797 9.00133 -0.287665
0.0531949 9.00529 -0.272248
-0.0190297 8.91237 -0.33281
0.0271977 8.9664 -0.397907
-0.154979 8.95217 -0.364734
-0.0701955 8.88535 -0.295297
-0.163354 9.02361 -0.587318
-0.164328 9.01434 -0.50354
-0.046128 9.00853 -0.634599
-0.0273374 8.99633 -0.609844
-0.0620025 8.89008 -0.487395
-0.0993139 8.87186 -0.621474
-0.139025 8.9019 -0.531027
-0.121488 8.87276 -0.589533
-0.153369 8.89917 -0.613088
-0.217172 8.99288 -0.757553
-0.0783194 9.00702 -0.81146
-0.0944756 9.03466 -0.748587
-0.117759 8.8586 -0.649226
-0.165946 8.87457 -0.860054
-0.198523 9.04921 -0.99896
-0.219422 9.03798 -1.05496
-0.206851 9.03607 -0.969546
-0.273686 8.98862 -1.07965
-0.165381 9.06233 -1.03182
-0.0906022 8.96113 -1.04793
-0.270173 8.96238 -1.0519
-0.123097 8.97718 -1.25827
-0.234964 8.91933 -1.27478
-0.20631 8.89354 -1.14784
-0.209705 8.89632 -1.17379
-0.3231 9.075 -1.65818
-0.222176 8.99527 -1.65628
-0.331802 9.01637 -1.63536
-0.325551 9.00965 -1.66719
-0.354767 9.03884 -1.71738
-0.300513 8.9844 -1.64546
-0.370443 9.08873 -1.85757
-0.25005 9.09588 -1.84986
-0.269174 9.10735 -1.93621
-0.283045 8.98321 -1.79877
-0.270957 9.04595 -1.94456
-0.310474 8.98604 -1.88353
-0.303062 8.98301 -1.79449
-0.441595 9.10086 -2.45619
-0.458368 9.14223 -2.56801
-0.485813 9.14973 -2.49538
-0.481419 9.1504 -2.59257
-0.475026 9.14211 -2.56444
-0.0433631 9.86898 0.18868
0.0735596 9.82444 0.0852631
-0.146023 9.82544 0.00720788
-0.12863 9.73111 0.167565
-0.115552 9.73009 0.146543
-0.0445821 9.78544 0.189655
-0.0920366 9.73009 0.161141
-0.080173 9.74393 0.16827
-0.133609 9.88233 0.306021
-0.122441 9.86901 0.313281
-0.0599849 9.84173 0.266001
-0.286065 9.84282 0.269985
-0.226441 9.77424 0.250589
-0.135976 9.77424 0.306868
-0.19573 9.84568 0.475488
-0.181675 9.84489 0.453976
-0.192127 9.85766 0.446555
-0.345617 9.89916 0.468963
-0.321013 9.76818 0.430574
-0.348619 9.77084 0.474755
-0.321013 9.76818 0.430574
-0.415366 9.91504 0.719983
-0.317542 9.87942 0.616899
-0.410563 9.9344 0.620977
-0.425459 9.93607 0.64438
-0.396786 9.76664 0.57661
-0.257207 9.83834 0.592663
-0.288626 9.84283 0.640077
-0.315303 9.83284 0.658164
-0.351463 9.8518 0.734905
-0.443948 9.76846 0.719271
-0.590645 9.92484 0.833581
-0.575586 9.86401 0.720757
-0.409029 9.84926 0.798899
-0.413932 9.86437 0.826702
-0.492743 9.83969 0.879472
-0.48784 9.82459 0.851669
-0.502549 9.86991 0.935079
-0.932484 9.96481 1.34106
-0.919015 9.97258 1.28024
-0.947413 9.9848 1.32663
0.665324 10.6827 -0.248441
0.614207 10.6495 -0.260283
0.563445 10.6387 -0.248589
0.655765 10.5808 -0.151135
0.670047 10.6381 -0.273251
0.691072 10.5934 -0.231276
2.95974 11.808 -0.948299
2.95757 11.8164 -0.937596
2.99484 11.8548 -0.923839
2.99484 11.8548 -0.923839
2.93862 11.7137 -0.897861
3.11337 11.9659 -1.00699
3.08867 11.9396 -0.974265
-2.15346 12.4266 -1.09106
-2.47382 12.8364 -1.28441
-2.50661 12.8001 -1.29143
-2.53548 12.8218 -1.31662
-2.59667 12.9403 -1.33695
-2.57897 12.9469 -1.35914
-2.67427 12.9872 -1.3582
-2.70714 13.0573 -1.43992
-2.67911 12.962 -1.39891
0.29656 12.5148 0.738382
0.242182 12.452 0.800981
0.27712 12.5858 0.793422
0.27712 12.5858 0.793422
0.287635 12.5413 0.922511
0.267634 12.5554 0.919339
0.267634 12.5554 0.919339
0.356884 12.5344 0.851554
0.520204 12.9039 1.27913
0.411909 12.8704 1.3005
0.507337 12.8702 1.36828
0.612003 13.236 1.59078
0.592765 13.1913 1.65051
0.675372 13.3414 1.69945
0.674257 13.3396 1.76747
0.638438 13.4624 1.81564
0.717684 13.4801 1.83132
0.720367 13.7342 2.0227
0.751345 13.7078 2.04436
0.791986 13.8327 2.13817
0.855412 13.9753 2.19006
0.845866 13.9455 2.16676
0.891821 14.0624 2.27788
-0.011035 12.9051 -0.229832
-0.0382275 12.8701 -0.219307
0.0640832 12.8186 -0.204446
0.0123968 12.8899 -0.275823
0.0746873 13.0214 -0.400953
0.306421 13.2954 -0.664756
0.315791 13.2311 -0.721417
0.354367 13.3887 -0.761783
0.424215 13.4826 -0.871568
0.368627 13.517 -0.863567
0.427616 13.463 -0.949753
0.417807 13.4153 -0.818763
0.462389 13.5634 -0.95616
0.438684 13.6123 -0.979171
0.445726 13.6976 -1.10986
0.477359 13.7404 -1.21416
0.471854 13.775 -1.23511
0.530441 13.8993 -1.31871
0.530441 13.8993 -1.31871
0.516991 13.869 -1.29386
0.581382 13.9449 -1.30193
0.601413 13.8709 -1.31523
0.496292 13.8305 -1.28382
0.570422 13.8643 -1.34195
0.649412 13.9911 -1.41993
0.675453 14.035 -1.41176
0.642999 14.1264 -1.43414
0.708551 14.1168 -1.47611
0.696463 14.2411 -1.49915
0.769319 14.2834 -1.52602
0.772982 14.369 -1.63434
0.804025 14.5253 -1.68587
0.874083 14.7466 -1.86305
0.863258 14.7512 -1.86039
0.921951 14.9289 -1.9381
0.903985 14.8859 -1.93486
0.944741 14.8683 -1.94464
-0.0864645 13.6952 0.0283367
-0.0212438 13.626 -0.00713525
-0.126167 13.6188 0.0093725
-0.210595 13.7099 0.0572095
-0.196249 13.7952 0.109084
-0.297277 13.8061 0.106117
-0.283203 13.9058 0.136978
-0.361143 13.8475 0.122746
-0.428071 13.9448 0.14125
-0.406536 14.0665 0.128258
-0.502875 14.1959 0.179568
-0.569667 14.1663 0.252922
-0.550266 14.2126 0.276627
-0.663222 14.4084 0.251964
-0.704364 14.3746 0.274771
-0.710224 14.5284 0.345892
-0.766711 14.4883 0.361558
-0.784866 14.519 0.372566
-0.837155 14.6251 0.328582
-0.814425 14.5465 0.359519
-0.845607 14.6015 0.379804
-0.874704 14.7938 0.475411
-0.996395 14.9451 0.498387
-1.02513 14.975 0.500092
-1.02666 15.1176 0.532133
-1.05711 15.2107 0.54198
-1.06712 15.2417 0.545014
-1.07713 15.2726 0.548048
-1.11822 15.3055 0.497548
-1.14167 15.5198 0.590183
-1.1675 15.5241 0.527237
-1.16732 15.5133 0.58227
-1.16874 15.619 0.596753
-1.18134 15.6573 0.562961
-1.22334 15.6419 0.576457
-1.25779 15.7652 0.604257
-1.25125 15.9138 0.636922
-1.24863 15.917 0.625777
0.0876042 14.4202 -0.051805
0.172252 14.7431 -0.0145137
0.144707 14.7135 0.006105
0.106374 14.6628 -0.0264173
0.203254 14.6001 0.0132008
0.217339 14.6687 0.035831
0.252258 14.8987 0.087032
0.304657 14.9089 0.094231
0.275991 14.8874 0.096827
0.32607 15.1037 0.0633192
0.351405 15.0828 0.132193
0.414642 15.2844 0.083162
0.414081 15.3133 0.15101
0.431898 15.1991 0.134368
0.439777 15.2672 0.149047
0.425 15.3404 0.153539
0.488375 15.3492 0.149707
0.50554 15.4109 0.099742
0.522117 15.5311 0.0999862
0.518801 15.4331 0.155747
0.562643 15.6257 0.10165
0.574661 15.6206 0.131132
0.539618 15.7322 0.130207
0.537616 15.7631 0.154095
0.615181 15.967 0.149816
0.587744 16.0597 0.217133
0.586929 16.0945 0.205228
0.596595 16.1276 0.218425
0.640549 16.2905 0.151954
0.609345 16.2633 0.192083
0.610432 16.2974 0.179097
0.660797 16.2886 0.199837
0.662 16.2536 0.183569
0.623026 16.3555 0.175086
0.700488 16.6219 0.135431
0.72508 16.5504 0.173486
-0.0334648 15.1195 -0.143034
-0.036653 15.1144 -0.0912425
-0.0845665 15.2547 -0.115363
-0.0664197 15.2494 -0.0738652
-0.0306865 15.2482 -0.0770202
-0.0382325 15.3639 -0.122047
-0.0712895 15.4832 -0.110807
-0.0834442 15.9347 -0.134929
-0.033642 15.9056 -0.0999053
-0.0576207 16.057 -0.118589
-0.10557 15.9938 -0.0798095
-0.10013 16.025 -0.0912027
-0.0744252 16.3843 -0.039434
-0.104611 16.836 -0.070918
-0.0884515 16.8373 -0.077967
-0.0884515 16.8373 -0.077967
-0.108061 16.9852 -0.122641
-0.132045 16.9523 -0.081215
-0.391644 0.39909 -0.219059
-0.351615 0.39909 -0.231816
-0.392024 0.384837 -0.219255
-0.292711 0.35633 -0.25154
-0.393162 0.342077 -0.219843
-0.135633 0.242304 -0.304138
-0.135633 0.242304 -0.304138
-0.236084 0.228051 -0.272441
-0.233428 0.327824 -0.271068
-0.233807 0.313571 -0.271264
-0.396199 0.228051 -0.221412
-0.415833 0.242305 -0.214837
-0.315382 0.256558 -0.246534
-0.315003 0.270811 -0.246338
-0.116378 0.213798 -0.310909
-0.198713 0.128279 -0.286571
-0.198333 0.142532 -0.286375
-0.238741 0.128279 -0.273814
-0.236844 0.199545 -0.272833
-0.199472 0.0997722 -0.286963
-0.0994006 0.099772 -0.318856
0.078071 -7.8125E-7 -0.377636
0.119997 0.0712653 -0.389413
0.0191669 0.042759 -0.357912
-0.0790067 0.114025 -0.325038
0.0399403 0.0712654 -0.363898
-0.0608902 0.0427591 -0.332397
-0.0208617 0.042759 -0.345155
-0.0178252 0.156785 -0.343586
-0.381119 0.0427596 -0.23034
-0.322215 -1.5625E-7 -0.250064
-0.379601 0.0997725 -0.229556
-0.359586 0.0997724 -0.235934
-0.320696 0.0570127 -0.24928
-0.318799 0.128279 -0.248299
-0.318799 0.128279 -0.248299
-0.398097 0.156785 -0.222393
-0.27444 0.0427604 0.242746
-0.311952 0.0712666 0.123052
-0.33443 0.185292 0.0445639
-0.346428 0.213799 0.0049275
-0.354325 0.156786 -0.0158712
-0.360324 0.171039 -0.0356893
-0.335948 0.128279 0.0437795
-0.391837 0.185292 -0.135565
-0.41052 0.44185 -0.212092
-0.398522 0.413343 -0.172456
-0.40528 0.39909 -0.192666
-0.40528 0.39909 -0.192666
-0.380904 0.356331 -0.113197
-0.377562 0.242305 -0.0947517
-0.357287 0.285065 -0.0341206
-0.41325 0.0997726 -0.196784
-0.375738 0.0712663 -0.0770906
-0.375358 0.0855195 -0.0768945
-0.412871 0.114026 -0.196588
0.322414 0.0142412 0.249696
0.123671 0.113929 0.310909
0.1633 0.0854466 0.298887
0.204128 0.142411 0.28466
0.202729 0.0427234 0.287233
0.123471 0.0996877 0.311277
0.0848419 0.199375 0.321461
0.0448133 0.199375 0.334218
0.0642279 0.156652 0.328943
0.0442136 0.156652 0.335321
-0.0356436 0.170893 0.360468
0.0838424 0.12817 0.323299
-0.115101 0.213616 0.38488
0.0626287 0.0427237 0.331883
-0.133916 0.299063 0.389053
-0.0748725 0.227857 0.371755
-0.134715 0.242098 0.390523
-0.0334446 0.327544 0.356425
-0.0334446 0.327544 0.356425
-0.0346441 0.242098 0.35863
-0.177943 0.014242 0.409161
-0.0578568 0.0142418 0.37089
-0.0174285 0.0427238 0.357397
0.0222003 0.0142417 0.345375
-0.0372428 0.0569648 0.363408
-0.0374428 0.0427238 0.363776
0.218842 0.441471 -0.390624
0.21921 0.412989 -0.391376
0.239819 0.299061 -0.334339
0.246566 0.270579 -0.315076
0.291584 0.242097 -0.175727
0.285021 0.256338 -0.195366
0.271896 0.28482 -0.234643
0.311456 0.185133 -0.117187
0.305078 0.185133 -0.137202
0.305446 0.156651 -0.137953
0.305446 0.156651 -0.137953
0.285758 0.199374 -0.196869
0.293057 0.128169 -0.178733
0.273001 0.199374 -0.236897
0.273369 0.170892 -0.237649
0.247302 0.213615 -0.316579
0.260796 0.156651 -0.278053
0.376899 0.0569639 0.0795739
0.351385 0.0569638 -4.83219E-4
0.351017 0.0854458 2.68219E-4
0.332802 0.0142406 -0.0616532
0.338996 0.0284817 -0.0412632
0.338996 0.0284817 -0.0412632
0.325134 0.113928 -0.0790375
0.237123 0.0142401 -0.361867
0.216882 0.0996862 -0.419656
0.223077 0.113927 -0.399266
0.281773 0.0142403 -0.221767
-0.286125 0.720563 -0.245313
-0.247224 0.720539 -0.257711
-0.266674 0.720551 -0.251512
-0.189642 0.692656 -0.276705
-0.227773 0.720526 -0.26391
-0.402829 0.720636 -0.208119
-0.383378 0.720624 -0.214318
-0.382993 0.734547 -0.214119
-0.382224 0.762393 -0.213722
-0.382993 0.734547 -0.214119
-0.325796 0.692742 -0.233313
-0.191181 0.636965 -0.277501
-0.116842 0.511611 -0.304085
-0.232391 0.553453 -0.266295
-0.116072 0.539457 -0.303688
-0.116457 0.525534 -0.303887
-0.135138 0.553392 -0.29729
-0.384917 0.664933 -0.215113
-0.365467 0.664921 -0.221312
-0.249533 0.637002 -0.258904
0.192828 0.455724 -0.404064
0.0593679 0.553269 -0.35928
0.0776641 0.511489 -0.366075
0.0570591 0.469733 -0.360472
-0.0184344 0.553318 -0.334484
0.00140097 0.567229 -0.340484
-0.0790951 0.469818 -0.31708
-0.0401939 0.469794 -0.329478
-0.0398091 0.483716 -0.329279
-0.0386547 0.525485 -0.328682
0.0376085 0.469745 -0.354274
-0.0931583 0.66475 -0.308098
-0.331953 0.469977 -0.236493
-0.369315 0.525693 -0.2233
-0.38915 0.511782 -0.2173
-0.330414 0.525668 -0.235698
-0.385687 0.637087 -0.215511
-0.21448 0.497749 -0.273289
-0.21371 0.525595 -0.272892
-0.247813 0.497555 0.294417
-0.253627 0.51149 0.275165
-0.260211 0.49758 0.255515
-0.284237 0.525474 0.17811
-0.285007 0.497628 0.177713
-0.336564 0.650889 0.00484381
-0.337719 0.60912 0.00424747
-0.350886 0.581299 -0.0350513
-0.338873 0.567352 0.00365112
-0.325706 0.595173 0.0429499
-0.32609 0.58125 0.0427512
-0.360975 0.66486 -0.0727599
-0.355546 0.637002 -0.0537068
-0.315232 0.525535 0.0808573
-0.393166 0.84593 -0.186879
-0.359436 0.720551 -0.0719648
-0.39586 0.74847 -0.188271
-0.397357 0.470002 -0.172796
-0.38419 0.497823 -0.133497
-0.402402 0.511782 -0.19165
-0.359394 0.497774 -0.0556947
-0.38342 0.525668 -0.1331
-0.389234 0.539603 -0.152351
-0.382651 0.553514 -0.132702
-0.341182 0.483815 0.00245844
-0.35281 0.511685 -0.0360453
0.236821 0.53899 0.265758
0.197919 0.539014 0.278156
0.120527 0.566915 0.302223
0.159223 0.552964 0.290189
0.160044 0.608669 0.28873
0.179495 0.608657 0.282531
0.138542 0.46942 0.298578
0.119912 0.525137 0.303317
0.0832674 0.678348 0.311701
0.0234795 0.580902 0.332852
0.0818313 0.580866 0.314256
0.042725 0.566964 0.327018
-0.0924034 0.63668 0.368587
-0.111444 0.664544 0.374056
-0.0733631 0.608816 0.363118
-0.112059 0.622766 0.375151
-0.128432 0.83167 0.375877
-0.168154 0.77599 0.389734
-0.168975 0.720285 0.391193
0.0251208 0.692311 0.329933
-0.0948653 0.469567 0.372965
-0.094455 0.497419 0.372236
-0.1137 0.511357 0.37807
-0.0551435 0.525247 0.359108
-0.0354877 0.539161 0.352544
-0.189246 0.664593 0.398852
-0.190477 0.581037 0.401041
-0.11288 0.567062 0.37661
0.213113 0.873483 -0.379458
0.239339 0.762025 -0.304684
0.239518 0.748099 -0.305062
0.258472 0.720211 -0.247467
0.290183 0.664445 -0.151728
0.303653 0.580865 -0.115097
0.2785 0.608765 -0.192143
0.260261 0.58095 -0.251252
0.311283 0.469444 -0.0986745
0.303832 0.566938 -0.115476
0.253168 0.650592 -0.26881
0.253883 0.594888 -0.270324
0.366716 0.497186 0.077138
0.385313 0.49715 0.13549
0.367252 0.455408 0.0760026
0.310925 0.497296 -0.0979176
0.316767 0.525136 -0.07771
0.310568 0.525148 -0.0971607
0.315336 0.636545 -0.0746823
0.309495 0.608705 -0.0948898
0.236896 0.469589 -0.332082
0.229445 0.567084 -0.348883
0.292686 0.46948 -0.157026
-0.330685 1.30865 -0.218177
-0.25626 1.265 -0.242835
-0.294034 1.26502 -0.230796
-0.257383 1.22139 -0.243415
-0.221107 1.16322 -0.256227
-0.219235 1.23591 -0.25526
-0.182584 1.19228 -0.267879
-0.335177 1.1342 -0.220498
-0.33368 1.19235 -0.219725
-0.315915 1.14873 -0.226324
-0.127795 1.11957 -0.286904
-0.111153 1.03233 -0.294084
-0.184081 1.13413 -0.268653
-0.242613 1.06147 -0.251562
-0.205588 1.03238 -0.263987
-0.132286 0.94512 -0.289225
-0.130789 1.00327 -0.288451
-0.335925 1.10513 -0.220885
0.0758446 0.959558 -0.355243
0.075096 0.930484 -0.35563
0.0762188 0.974096 -0.35505
0.0188095 0.945048 -0.337379
0.00141966 1.00321 -0.330586
0.038445 0.974114 -0.343011
-0.0567383 0.945084 -0.313302
-0.0189644 0.945066 -0.32534
-0.0378513 0.945075 -0.319321
0.00216822 1.03228 -0.330199
-0.321155 0.945209 -0.229032
-0.338545 1.00337 -0.222239
-0.374448 1.07607 -0.209233
-0.374822 1.06153 -0.209427
-0.374822 1.06153 -0.209427
-0.262623 1.01787 -0.246123
-0.299648 1.04696 -0.233697
-0.356684 1.03245 -0.215833
-0.152296 0.901517 -0.283786
-0.207085 0.97423 -0.264761
-0.226346 0.959701 -0.258935
-0.228163 0.944996 0.32388
-0.244724 1.00317 0.267993
-0.246595 0.930486 0.267026
-0.257511 0.974115 0.229832
-0.292878 1.00324 0.116897
-0.273323 1.06136 0.174332
-0.295124 0.916019 0.115737
-0.276318 0.945067 0.172785
-0.292878 1.00324 0.116897
-0.281588 0.97415 0.154284
-0.30869 1.09049 0.0613968
-0.339161 1.076 -0.0332314
-0.316207 1.03235 0.0417362
-0.350077 1.11963 -0.0704251
-0.306788 0.930574 0.0781563
-0.31733 0.988741 0.041156
-0.322975 1.00329 0.0224625
-0.381327 1.30867 -0.181233
-0.369663 1.29411 -0.143652
-0.359495 1.22141 -0.106845
-0.377928 1.2069 -0.1637
-0.385413 0.916152 -0.167568
-0.348549 0.945174 -0.053859
-0.307537 0.9015 0.0777695
-0.341407 0.988776 -0.0343918
-0.330117 0.959684 0.00299528
-0.388438 1.03246 -0.184907
-0.358342 1.03241 -0.0904725
0.267549 0.944794 0.247254
0.230554 1.00304 0.257812
0.230165 0.973924 0.258552
0.249052 0.973915 0.252533
0.117427 1.01765 0.293557
0.210888 0.944821 0.265312
0.153643 0.90118 0.284481
0.0975665 0.944874 0.301428
0.172725 0.915727 0.278091
0.0235758 1.06136 0.322543
0.0422682 1.04679 0.316894
-0.183402 1.11968 0.387274
-0.127131 1.09054 0.369957
-0.0704697 1.09051 0.351899
-0.089746 1.06141 0.358659
-0.070859 1.0614 0.352639
-0.0700804 1.11963 0.351158
-0.125573 1.20699 0.366994
-0.125963 1.17788 0.367735
-0.163737 1.17789 0.379773
-0.0319171 1.14872 0.338379
-0.148353 0.915878 0.38042
-0.0722216 0.95951 0.355232
-0.14738 0.988658 0.378568
0.0594032 0.91578 0.314207
-0.0344477 0.959493 0.343193
-0.146602 1.04688 0.377087
-0.184375 1.0469 0.389126
0.21969 1.27978 -0.331792
0.245282 1.16329 -0.259229
0.233054 1.17787 -0.29663
0.293816 1.13411 -0.108879
0.250355 1.23606 -0.238477
0.262772 1.20693 -0.201449
0.215375 1.14878 -0.354037
0.220826 1.19244 -0.334031
0.287986 1.11956 -0.128139
0.289122 1.03223 -0.130378
0.258647 1.06138 -0.224066
0.284239 0.9449 -0.151503
0.265424 1.00315 -0.206671
0.221963 1.1051 -0.336269
0.381116 0.901091 0.149569
0.368699 0.93022 0.112541
0.36249 0.944785 0.0940275
0.362869 0.915673 0.0932814
0.35083 0.915691 0.0555075
0.332015 0.973941 3.38844E-4
0.350073 0.973915 0.0569997
0.301539 1.0031 -0.0933498
0.307748 0.988532 -0.0748359
0.301161 1.03221 -0.0926037
0.212197 0.93045 -0.378519
0.218027 0.944997 -0.359259
0.211818 0.959562 -0.377773
0.236463 0.915859 -0.303344
0.217269 1.00322 -0.357767
0.235327 1.00319 -0.301106
0.247744 0.974065 -0.264078
0.209924 1.10512 -0.374043
0.210303 1.07601 -0.374789
0.234948 1.03231 -0.30036
0.210682 1.0469 -0.375535
0.290637 0.915779 -0.133362
0.2722 0.944918 -0.189277
-0.32183 1.78541 -0.212191
-0.359173 1.75319 -0.200871
-0.231954 1.70497 -0.242288
-0.359521 1.73709 -0.201051
-0.1967 1.64059 -0.254686
-0.379932 1.64049 -0.19629
-0.359869 1.721 -0.20123
-0.288316 1.64054 -0.225488
-0.105431 1.62454 -0.284064
-0.106475 1.57625 -0.284604
-0.14347 1.56013 -0.273104
-0.178724 1.6245 -0.260706
-0.126191 1.51185 -0.279483
-0.144862 1.49574 -0.273823
-0.144166 1.52793 -0.273464
-0.146254 1.43134 -0.274542
-0.14521 1.47964 -0.274003
-0.14521 1.47964 -0.274003
-0.182205 1.46352 -0.262504
-0.23613 1.51179 -0.244445
0.128247 1.41539 -0.362317
0.0736252 1.43146 -0.344618
-0.0352704 1.4797 -0.309041
0.0380227 1.47974 -0.3324
-0.072265 1.46358 -0.297541
-0.0705249 1.54407 -0.296643
0.0203955 1.51192 -0.3262
-0.0712209 1.51188 -0.297002
-0.365786 1.44733 -0.204287
-0.347462 1.44733 -0.210126
-0.294233 1.36687 -0.228544
-0.256542 1.41519 -0.239684
-0.272777 1.51177 -0.232766
-0.164926 1.41524 -0.268883
-0.219199 1.4474 -0.251004
-0.238814 1.41536 0.259275
-0.26078 1.47972 0.186701
-0.250841 1.39925 0.222448
-0.265228 1.5441 0.169097
-0.260084 1.51191 0.18706
-0.273851 1.41531 0.149335
-0.284487 1.46358 0.113228
-0.317784 1.54401 0.00418734
-0.31848 1.51182 0.00382778
-0.374789 1.60831 -0.178326
-0.35727 1.60834 -0.123356
-0.341143 1.54397 -0.0691057
-0.346983 1.54396 -0.0874289
-0.302354 1.44745 0.0580784
-0.296514 1.44746 0.0764017
-0.330508 1.4957 -0.0329985
-0.370264 1.81758 -0.175989
-0.34211 1.76934 -0.084912
-0.339055 1.64056 -0.068027
-0.331127 1.73716 -0.048625
-0.348646 1.73713 -0.103595
-0.331823 1.70497 -0.0489846
-0.337663 1.70496 -0.0673078
-0.379932 1.64049 -0.19629
-0.367557 1.67271 -0.159284
-0.377844 1.73708 -0.195211
-0.304017 1.64062 0.0419125
-0.325983 1.70498 -0.0306613
-0.360054 1.47955 -0.124795
-0.331552 1.4474 -0.0335378
-0.325712 1.44741 -0.0152146
-0.327104 1.38302 -0.0159337
-0.321265 1.38303 0.00238953
-0.338088 1.4152 -0.0522207
-0.375485 1.57611 -0.178686
-0.369645 1.57612 -0.160362
-0.36485 1.52784 -0.142578
-0.353518 1.51176 -0.106112
0.31424 1.38355 0.223104
0.259102 1.36738 0.241007
0.113862 1.49636 0.284653
0.114536 1.56089 0.283117
0.150845 1.52864 0.272206
0.0600706 1.60925 0.299485
0.00476416 1.57696 0.317771
-0.123499 1.57689 0.358649
-0.123162 1.60916 0.357881
0.0398959 1.43179 0.309547
0.0404008 1.48019 0.308395
-0.0855057 1.70597 0.343899
-0.0671825 1.70598 0.338059
-0.122826 1.64142 0.357113
-0.141149 1.64141 0.362953
-0.140812 1.67367 0.362185
-0.0125492 1.67374 0.321308
-0.0125492 1.67374 0.321308
-0.0488592 1.70599 0.332219
-0.0128859 1.64148 0.322076
-0.0308725 1.67373 0.327147
-0.107027 1.39945 0.357032
-0.125519 1.38331 0.363256
-0.161492 1.44782 0.373399
-0.0518888 1.41561 0.339129
-0.0885354 1.41559 0.350808
-0.0698755 1.44787 0.344201
0.00291272 1.39951 0.321994
0.00291272 1.39951 0.321994
-0.178974 1.52847 0.37732
-0.0692022 1.51239 0.342666
0.211976 1.81879 -0.321182
0.218031 1.80267 -0.303218
0.236628 1.72205 -0.250045
0.213054 1.73814 -0.322979
0.261066 1.64144 -0.178549
0.248523 1.70594 -0.213758
0.202022 1.68973 -0.360704
0.237923 1.62527 -0.252202
0.226243 1.62525 -0.288848
0.284856 1.60922 -0.105975
0.272961 1.62533 -0.142262
0.272961 1.62533 -0.142262
0.256089 1.57692 -0.19831
0.287875 1.38341 -0.111007
0.275764 1.41565 -0.146935
0.226675 1.593 -0.289567
0.22689 1.57687 -0.289926
0.37547 1.38356 0.163842
0.346056 1.39964 0.0725851
0.321835 1.46412 7.29688E-4
0.298045 1.49634 -0.0718445
0.315779 1.48024 -0.0172342
0.29826 1.48021 -0.0722039
0.298476 1.46408 -0.0725633
0.296966 1.57699 -0.0700475
0.303669 1.51248 -0.0531618
0.217584 1.39943 -0.330526
0.205042 1.46392 -0.365735
0.211097 1.4478 -0.347771
0.222345 1.48008 -0.310406
0.197261 1.60908 -0.380824
0.203532 1.57683 -0.363219
0.215642 1.54459 -0.327292
0.239432 1.51237 -0.254718
0.246998 1.38335 -0.23927
0.258677 1.38337 -0.202623
-0.322203 1.92906 -0.209569
-0.18064 1.96069 -0.254179
-0.0761348 2.08618 -0.285461
-0.00407025 2.02373 -0.309441
-0.0573489 2.0236 -0.292461
0.136467 2.11799 -0.352712
0.13621 2.13364 -0.352377
-0.0733126 1.91397 -0.289144
-0.00355713 1.99241 -0.31011
0.169677 2.25897 -0.361019
0.0986387 2.2588 -0.338379
0.169934 2.24331 -0.361354
0.152174 2.24327 -0.355694
0.171473 2.14938 -0.363363
0.187693 2.24335 -0.367014
0.134928 2.21192 -0.350704
0.0461297 2.21172 -0.322403
0.174038 1.99282 -0.36671
0.174552 1.96151 -0.36738
0.192311 1.96155 -0.37304
0.174552 1.96151 -0.36738
0.138776 1.97708 -0.355725
0.0152287 1.92983 -0.317109
0.0332448 1.91422 -0.323104
-0.218962 2.24333 0.276519
-0.191427 2.14959 0.367768
-0.196832 2.18086 0.349192
-0.208152 2.18078 0.313673
-0.219727 2.14937 0.27897
-0.265389 2.10204 0.138119
-0.265898 2.0394 0.139754
-0.248791 2.05519 0.192624
-0.271941 1.99237 0.12322
-0.334455 1.96057 -0.0713187
-0.32854 1.99194 -0.0543762
-0.32288 1.99198 -0.0366166
-0.323135 1.96066 -0.0357995
-0.294836 1.96088 0.0529985
-0.312325 1.89811 0.00135397
-0.198872 1.9303 0.355729
-0.204531 1.93025 0.337969
-0.221129 1.9771 0.283465
-0.220619 2.03975 0.28183
-0.197979 2.03992 0.352869
-0.278493 1.88271 0.10832
0.222599 2.2453 0.233606
0.222599 2.2453 0.233606
0.223472 2.21391 0.234064
0.347789 2.2142 0.194444
0.295383 2.18269 0.211882
0.155924 2.0882 0.258536
0.139038 2.05677 0.264654
0.15767 2.02542 0.259452
0.193189 2.0255 0.248132
0.0875044 1.99387 0.282551
0.245159 2.07271 0.230465
-0.0519539 1.89938 0.329205
-4.20687E-4 1.96228 0.311309
0.0173389 1.96232 0.305649
0.0368439 1.89958 0.300905
0.0320438 2.07222 0.298386
0.0329166 2.04083 0.298844
0.0693084 2.00952 0.287982
0.374276 1.90036 0.193364
0.320124 1.93162 0.209886
0.355207 1.9474 0.198337
0.267718 1.90011 0.227324
0.33352 2.08861 0.201936
0.316197 2.07287 0.207825
0.31707 2.04148 0.208283
0.281987 2.02571 0.219832
0.107882 1.89975 0.278264
0.21444 1.89999 0.244304
0.241479 1.99352 -0.216481
0.252799 1.99361 -0.180961
0.27282 2.08795 -0.111297
0.279353 2.0566 -0.0930795
0.294587 2.11951 -0.0407167
0.30112 2.08817 -0.0224991
0.318536 2.0726 0.0310087
0.341176 2.07278 0.102047
0.293291 1.96253 -0.0561863
0.35727 2.30836 0.16965
0.35161 2.30832 0.151891
0.326801 2.18255 0.0649248
0.326801 2.18255 0.0649248
0.364675 2.24563 0.188326
0.315045 2.19815 0.0291767
0.303725 2.19807 -0.00634253
0.345103 1.93153 0.104108
0.36121 1.96305 0.156929
0.343794 1.97861 0.103421
0.343358 1.99431 0.103192
0.343358 1.99431 0.103192
0.354241 2.01009 0.138482
-0.296942 2.42348 -0.209589
-0.245636 2.43747 -0.225711
-0.24451 2.38239 -0.226989
-0.261987 2.39609 -0.221189
-0.177979 2.49284 -0.246355
-0.160502 2.47915 -0.252155
-0.159938 2.45161 -0.252794
-0.127799 2.56191 -0.261199
-0.144713 2.54807 -0.256038
-0.0900295 2.39683 -0.275994
-0.0905925 2.42437 -0.275355
-0.107788 2.4243 -0.269874
-0.124984 2.42422 -0.264394
-0.0418202 2.56229 -0.288601
0.0266813 2.57635 -0.310203
-0.0234985 2.50728 -0.29536
0.0280887 2.50751 -0.311801
0.0447215 2.53512 -0.316642
-0.0731152 2.41068 -0.281155
0.177221 2.78356 -0.354735
0.0593837 2.65912 -0.319247
0.128167 2.65941 -0.341169
0.0946198 2.61796 -0.331167
0.184539 2.42556 -0.363042
0.081928 2.39758 -0.330799
0.166781 2.45303 -0.356923
0.080802 2.45265 -0.329521
0.131545 2.49418 -0.345003
-0.0384422 2.39706 -0.292435
0.012019 2.45236 -0.307599
0.164247 2.57695 -0.354047
0.0968717 2.5078 -0.333723
-0.192022 2.78367 0.332155
-0.192124 2.7699 0.332578
-0.259117 2.60371 0.131314
-0.237093 2.6178 0.199673
-0.198322 2.67345 0.318349
-0.259322 2.57617 0.132162
-0.237503 2.56273 0.201369
-0.260244 2.45227 0.135976
-0.243599 2.48005 0.186715
-0.248976 2.49373 0.169096
-0.198937 2.59084 0.320892
