ply
format ascii 1.0
comment VCGLIB generated
element vertex 1685
property float x
property float y
property float z
element face 0
property list uchar int vertex_indices
end_header
-0.0469735 0.691503 -0.0662436
-0.081187 0.710949 -2.38875E-4
-0.0788118 0.710584 -0.028308
-0.0780211 0.68147 -0.0362374
-0.0547403 0.722152 0.0578837
-0.0573613 0.731731 0.054641
-0.0546615 0.693068 0.0583893
-0.064988 0.673217 0.0464293
-0.0650142 0.682912 0.0462608
-0.0754458 0.701839 0.0336267
-0.070335 0.731154 0.0392698
-0.00550619 0.723622 0.0765072
-0.0209577 0.674437 0.0765314
-0.0208409 0.664689 0.0768064
-0.0378102 0.74223 0.0732557
-0.0373432 0.703237 0.0743557
-0.0167154 0.655052 0.0774191
0.0533234 0.734513 0.0526427
0.0456346 0.675595 0.0621563
0.0341038 0.646032 0.0734044
0.0800311 0.636171 -0.0146951
0.0729061 0.734612 0.0248061
-0.0585099 0.8423 -0.0589126
-0.0587404 0.859387 -0.0590681
-0.0582794 0.825214 -0.0587571
-0.0842241 0.868388 0.0126094
-0.0837811 0.859787 0.00881544
-0.0824519 0.833986 -0.00256637
-0.0797321 0.850556 -0.0375671
-0.0807155 0.850728 -0.025952
-0.0523279 0.870194 0.0590766
-0.0762354 0.774856 0.0317706
0.0133294 0.872478 0.0729733
-0.00195769 0.863406 0.0719924
-0.00950444 0.854588 0.0716629
-0.0174384 0.862897 0.0706894
-0.0309829 0.776754 0.072607
0.0565933 0.856071 0.0413839
0.045716 0.830135 0.0524152
0.0450515 0.847295 0.0517472
0.0298768 0.855628 0.0639497
0.0683519 0.864277 -0.0017725
0.0688017 0.855695 -0.00166587
0.0654854 0.881786 0.0212447
0.0586624 0.846119 -0.0439266
-0.0191855 0.954815 -0.0802303
-0.0121332 0.972224 -0.0795341
-0.034118 0.954458 -0.0814891
-0.0773941 0.91929 -0.0443702
-0.0777996 0.953788 -0.0445944
-0.0724794 0.988366 -0.0496544
-0.0670579 1.01432 -0.0546584
-0.0467141 0.988732 -0.0714153
-0.0825554 0.953936 -0.0197726
-0.0823299 0.98837 -0.0274648
-0.0783684 0.937491 0.0275074
-0.0173563 0.99104 0.066395
-0.0283784 0.982219 0.0657501
-0.0276694 0.948006 0.0669461
-0.0379825 0.904972 0.0674973
-0.0417156 0.904883 0.0671826
-0.0274921 0.939453 0.0672451
0.0164114 0.974877 0.0671478
0.0672699 0.923734 -0.0257687
0.0623158 1.00912 -0.0191301
0.0636127 0.983524 -0.0188813
0.0303651 0.921925 -0.0736026
-0.0324596 1.06397 -0.0803177
-0.0186616 1.12307 -0.0783438
-0.00826425 1.16247 -0.0769268
-0.0113716 1.11327 -0.0778641
-0.0191504 1.17225 -0.0777097
-0.00826425 1.16247 -0.0769268
-0.0727781 1.15214 -0.0492099
-0.0452069 1.1524 -0.0724943
-0.083989 1.15188 -0.00968063
-0.0825448 1.0633 -0.0279976
-0.0745138 1.14207 0.0296548
-0.0746356 1.08326 0.0302577
-0.0487721 1.16179 0.0598891
-0.0413081 1.12295 0.06132
0.0452004 1.06614 0.0380021
0.0577614 1.12401 -0.0123267
0.059923 1.10472 -0.0303267
0.0540444 1.16262 0.016481
0.0540444 1.16262 0.016481
0.0385841 1.09435 -0.0559962
0.0339272 1.09435 -0.0615107
0.0402082 1.12366 -0.0528929
-0.0253284 1.32941 -0.0735856
-8.78562E-4 1.28024 -0.0729777
0.0133444 1.20188 -0.0740989
0.00633081 1.22151 -0.0741094
0.00978869 1.22147 -0.0738186
0.0166555 1.23115 -0.0729514
-0.0649551 1.31953 -0.0501249
-0.0676063 1.31951 -0.0478857
-0.0597419 1.30972 -0.0549013
-0.0649551 1.31953 -0.0501249
-0.0545287 1.29992 -0.0596777
-0.0383532 1.32952 -0.0722188
-0.0803701 1.31902 -0.014499
-0.0741839 1.29876 0.0273999
-0.0295921 1.28815 0.0607448
0.0376507 1.31681 0.0390765
0.0530895 1.24001 0.0137301
0.0218629 1.32876 -0.0671546
0.0263406 1.3286 -0.0618537
0.0361271 1.27014 -0.0523244
0.0453596 1.25044 -0.0420802
0.0169903 1.40605 -0.0665189
0.0108087 1.45762 -0.0646996
0.00748931 1.45769 -0.0649781
-0.058682 1.44123 -0.047382
-0.0806193 1.36284 0.00745375
-0.0805157 1.37986 0.0144531
-0.0767905 1.44042 -8.77062E-4
-0.0760747 1.46612 0.002984
-0.0614946 1.42203 0.0395589
-0.0433341 1.45542 0.0602059
-0.0438184 1.4383 0.0600576
-0.0500233 1.44718 0.0525003
0.00887813 1.36895 0.0640564
-0.0137358 1.42067 0.0624777
0.00286112 1.42031 0.0638705
-0.0198564 1.46349 0.0622299
0.0277316 1.45435 0.0496251
0.0521512 1.43778 0.013289
0.0515953 1.42056 0.019625
0.0316017 1.4569 -0.0510384
0.0488211 1.43895 -0.0312667
0.0532423 1.36186 -0.0287841
-0.00981606 1.57741 -0.0613049
-0.00645625 1.59443 -0.0602934
-3.60063E-4 1.56873 -0.0608749
-3.8125E-6 1.60287 -0.0593866
0.0182847 1.52577 -0.0611309
-0.0519533 1.55226 -0.0455454
-0.0541659 1.56077 -0.0431014
-0.075828 1.49999 0.0170239
-0.071805 1.56016 -9.695E-4
-0.072301 1.59407 0.0219284
-0.072455 1.57705 0.0152519
-0.070388 1.56889 -0.0135394
-0.047479 1.52438 0.0533252
-0.0518558 1.51591 0.0483957
-0.0467102 1.55018 0.0534803
0.00802194 1.54912 0.0648746
0.0514674 1.59224 0.0259199
0.0490478 1.50733 -0.0287481
-0.0235321 1.75742 -0.0579081
0.00691613 1.74779 -0.0555641
0.00692494 1.7381 -0.0557794
-0.0562206 1.69009 -0.0354696
-0.0538873 1.69007 -0.0374409
-0.0515539 1.69006 -0.0394123
-0.0291442 1.74779 -0.0563301
-0.0667169 1.74822 0.00381706
-0.0687375 1.7192 0.0190374
-0.0662049 1.74816 -0.00227069
-0.0436418 1.67995 0.0532598
-0.0625659 1.72875 0.0293976
-0.0581488 1.7582 0.0337462
0.0091155 1.71909 0.0637206
-0.0213041 1.7289 0.0610438
0.0355544 1.74851 0.0439106
0.0192004 1.73876 0.0578276
0.0121391 1.70924 0.0640939
0.0142891 1.62051 0.0631789
0.0509418 1.68929 0.0230296
0.0521366 1.66949 0.0109103
-0.0210738 1.84422 -0.0581393
-0.00654631 1.84449 -0.0569231
-0.00945181 1.84443 -0.0571663
-0.0592406 1.78655 -0.0308085
-0.0590979 1.80585 -0.0310908
-0.0546424 1.80579 -0.0348539
-0.0565849 1.84441 -0.0335368
-0.0642477 1.8449 -0.0162751
-0.0576926 1.86555 0.0301196
-0.0578575 1.84611 0.0306811
-0.0561411 1.82677 0.0334681
-0.0103904 1.85697 0.0577169
-0.0104058 1.87658 0.05694
-0.0306904 1.80757 0.0579563
0.0195437 1.86677 0.0515684
0.0109253 1.8472 0.0598969
0.0140301 1.78805 0.0604221
0.0112177 1.82749 0.0606991
0.0508322 1.83626 -0.00939694
0.0518478 1.81654 -0.0148619
0.0234901 1.78665 -0.0520354
0.0332232 1.87441 -0.0392576
0.0356227 1.84548 -0.03684
0.0405757 1.88452 -0.0304191
-0.0232352 2.02259 -0.0614594
-0.00399188 2.0316 -0.0600682
-0.0348823 2.00549 -0.0560936
-0.0631476 1.97191 -0.0283228
-0.0524421 1.99166 0.0304476
-0.0560822 2.04272 0.0234836
-0.0132733 2.05321 0.046295
-0.0235461 1.9843 0.0498615
-0.0325441 2.04415 0.0452393
-0.0268107 2.02713 0.0468239
-0.0214754 2.04442 0.0461633
-0.0214754 2.04442 0.0461633
0.0427359 1.93288 0.027808
0.0180809 2.01914 0.040888
0.0452152 2.00016 -0.0146379
0.0215588 2.01534 -0.0515944
0.0392083 2.0252 -0.0306457
0.0325723 2.00759 -0.0386442
-0.0118405 2.12608 -0.0627684
-0.0284715 2.18629 -0.0654207
-0.0549255 2.16054 -0.0446324
-0.0425863 2.14316 -0.0544712
-0.0441141 2.10863 -0.0520076
-0.0661994 2.17015 -0.00365594
-0.0652825 2.15264 -0.0136138
-0.065725 2.15277 -0.00835594
-0.0639709 2.16086 -0.0296664
-0.0634647 2.12625 -0.0338085
-0.0635903 2.0746 -0.0295059
-0.0413484 2.18017 0.0343086
-0.0617726 2.15354 0.0113781
-0.0617829 2.17925 0.0101323
-0.0566743 2.17948 0.0161764
-0.0617417 2.07643 0.0151153
-0.0260418 2.14646 0.0396055
-0.0315766 2.17192 0.0376073
-0.0365598 2.14629 0.0387245
-0.0204151 2.11249 0.042123
-0.0283036 2.11236 0.0414623
-0.0388216 2.11219 0.0405812
0.0353462 2.12119 0.0174137
0.0266114 2.13827 0.0233441
0.0388514 2.14571 -0.0152129
0.0363521 2.18027 -0.00328775
0.0137124 2.15256 -0.0592988
0.0338873 2.16209 -0.0353234
-0.0138609 2.30484 -0.0634073
-0.0187771 2.2653 -0.0640822
-0.0542717 2.33452 -0.0453109
-0.0484916 2.30487 -0.0503453
-0.0409194 2.34448 -0.0565443
-0.0624049 2.31474 -0.0362243
-0.0634478 2.24562 -0.0310659
-0.0512577 2.29469 0.0190721
-0.0589226 2.33393 0.008874
-0.0640676 2.30474 0.00363263
-0.06518 2.19732 0.00542012
-0.0667939 2.19735 0.0035105
-0.0145502 2.33343 0.0339852
-0.0369876 2.32394 0.0323712
-0.034508 2.31427 0.0328478
-0.0270087 2.33352 0.0329399
-0.0370846 2.24672 0.0345117
0.030682 2.27579 0.0120894
0.00874644 2.31416 0.0290847
0.0347689 2.27544 -0.0154018
0.0201034 2.32433 -0.0480081
0.0102655 2.33438 -0.0594124
0.0136479 2.32447 -0.0556463
0.029632 2.33394 -0.0364977
-0.0158363 2.48276 -0.055879
0.00702656 2.42295 -0.0571576
-0.00260369 2.40363 -0.0590147
-1.41E-4 2.41338 -0.0582813
-0.0497116 2.43337 -0.0422517
-0.0544154 2.45301 -0.0367569
-0.0327915 2.50273 -0.0512071
-0.0356606 2.47309 -0.0510693
-0.0403644 2.49272 -0.0455746
-0.0593395 2.47166 -0.00886219
-0.0564496 2.50215 -0.0290501
-0.0580116 2.49159 -0.0152712
-0.0481997 2.41192 0.0205018
-0.0566715 2.49022 0.00958681
-0.00153919 2.37183 0.0353656
-0.0305159 2.48799 0.035184
-0.025811 2.48782 0.0355743
0.002484 2.36219 0.0338408
0.0027515 2.38137 0.0342333
0.0326228 2.43058 -0.00472119
0.0238868 2.46128 -0.0381735
0.0269126 2.45126 -0.0350027
0.0314794 2.4508 -0.0296042
0.0116163 2.61318 -0.0419351
0.00718831 2.61336 -0.0423009
-0.0030405 2.5708 -0.0472261
-0.0480426 2.5539 -0.0311358
-0.0441259 2.56257 -0.0332418
-0.0280851 2.63152 -0.0371894
0.0292296 2.76364 0.0361875
0.027086 2.73754 0.036294
0.0212633 2.76343 0.0429075
0.0118296 2.69373 0.0463275
-0.00943313 2.89895 -0.0263041
-0.00286706 2.87033 -0.0265334
-0.00337081 2.88961 -0.0260522
-0.0203542 2.87978 -0.0249881
-0.0210624 2.81307 -0.0254952
-0.0184216 2.84172 -0.0272495
-0.0434262 2.85975 0.0130474
-0.0439009 2.92744 0.0190389
-0.0275932 2.86998 0.0446644
-0.0353712 2.89882 0.0355032
-0.00191937 2.88062 0.0509068
-0.0108163 2.9299 0.0497953
0.0286374 2.85185 0.0349751
0.0316121 2.85192 0.0324657
0.0243194 2.8915 0.0374779
0.0256626 2.85177 0.0374844
0.00992556 2.92095 0.0487652
0.0330873 2.90118 0.011816
0.0315871 2.90158 0.0292642
0.0342712 2.83196 0.0253982
0.0184046 2.91968 -0.0177999
0.0328629 2.90118 -0.001715
0.0284181 2.92049 -0.00590444
0.0318669 2.82239 -0.00726131
-0.0175768 2.99464 -0.0287881
-0.0240194 3.03224 -0.0307856
-0.0125639 3.07192 -0.0313268
-0.0397202 3.06971 -0.0233114
-0.0340953 3.03177 -0.0239367
-0.0300028 3.05095 -0.0294528
-0.0320995 3.06042 -0.0287136
-0.0327647 3.05087 -0.0271213
-0.0355772 3.06984 -0.0268087
-0.0207485 2.94645 -0.0259264
-0.0477079 3.01281 -0.00542037
-0.0384751 3.05544 0.0327384
-0.0459206 3.04407 0.023796
-0.0462186 2.95638 0.0228756
-0.0178366 3.03816 0.041286
-0.0267857 3.03712 0.0405579
0.0236878 3.00049 0.0262652
0.00495375 3.07907 0.0299542
0.0123993 3.05951 0.0267003
0.0216573 3.03884 0.00298712
0.0200552 3.05807 -0.00172213
0.0107522 2.96778 -0.0240208
0.0144902 2.9784 -0.0189789
3.99187E-4 3.08314 -0.0293622
-0.0860019 3.41846 -0.0538231
-0.0906144 3.49714 -0.0610536
-0.0931999 3.49834 -0.0435669
-0.0910911 3.46854 -0.0450043
-0.0903329 3.46795 -0.0533019
-0.0895036 3.45792 -0.055164
-0.0878292 3.41907 -0.0446341
-0.0899313 3.47959 -0.0326381
-0.0897017 3.45994 -0.0316306
-0.0848918 3.39167 -0.0233146
-0.0866724 3.39145 -0.0254434
-0.0642623 3.48204 -0.0172941
-0.0614916 3.48217 -0.0170496
-0.0698038 3.4818 -0.0177831
-0.0746003 3.49126 -0.0192806
-0.0731101 3.51067 -0.0212978
-0.0725746 3.48168 -0.0180276
-0.0703276 3.38507 -0.00708619
-0.0703276 3.38507 -0.00708619
-0.0742742 3.42358 -0.0117317
-0.041836 3.51095 -0.0333246
-0.0437999 3.48246 -0.0263604
-0.0443966 3.46345 -0.0223119
-0.0433276 3.46343 -0.0232033
-0.0457141 3.38739 -0.00700931
-0.0469571 3.41596 -0.0112992
-0.0290683 3.40425 -0.0449659
-0.0332649 3.443 -0.0416854
-0.0421314 3.4208 -0.0617917
-0.0420519 3.4306 -0.0615411
-0.0504781 3.4883 -0.0706811
-0.0398738 3.47984 -0.0581592
-0.0432761 3.499 -0.0619155
-0.0612663 3.59553 -0.0767855
-0.0568003 3.65392 -0.0781435
-0.0539539 3.61485 -0.0767033
-0.0849984 3.65483 -0.0709421
-0.0851976 3.61545 -0.0697616
-0.0785584 3.5954 -0.0747801
-0.0744088 3.65427 -0.0797559
-0.0765334 3.61499 -0.0769729
-0.0777452 3.56582 -0.074696
-0.0938306 3.52815 -0.0412278
-0.0928723 3.57718 -0.045078
-0.0928169 3.58704 -0.0443508
-0.0916344 3.65574 -0.0479943
-0.0819589 3.56859 -0.0285283
-0.0802739 3.57832 -0.0272233
-0.0813936 3.63656 -0.0328792
-0.0799509 3.61715 -0.0297095
-0.0659822 3.61731 -0.0275618
-0.0646776 3.60766 -0.026818
-0.0596858 3.60754 -0.0263595
-0.0722219 3.61747 -0.0281349
-0.0698961 3.64626 -0.0297933
-0.0422186 3.53975 -0.0350318
-0.0480248 3.65505 -0.0382948
-0.0517129 3.64567 -0.0345508
-0.0417007 3.62565 -0.0519138
-0.0430976 3.65476 -0.0435488
-0.0413401 3.57786 -0.0442277
-0.0510077 3.65399 -0.0739599
-0.046118 3.60579 -0.0671243
-0.0403273 3.59619 -0.0599773
-0.0432611 3.62512 -0.0640787
-0.0414811 3.61548 -0.0617483
-0.0412283 3.55759 -0.0602887
-0.0455906 3.57685 -0.0659129
-0.0439863 3.57686 -0.0639862
-0.0485524 4.06339 -0.0873123
-0.0477179 4.0634 -0.0872394
-0.0412771 4.0248 -0.0841824
-0.0450963 4.08283 -0.0882577
-0.0422296 4.00541 -0.0830183
-0.0612376 4.05437 -0.0813092
-0.0602876 3.96929 -0.0465685
-0.0447283 3.98861 -0.0459063
-0.0487206 4.00807 -0.0481901
-0.0443673 4.0277 -0.0497451
-0.0491039 4.05691 -0.0530614
-0.0442771 4.03747 -0.0507048
-0.0331167 4.0073 -0.0565754
-0.0320174 4.04575 -0.0664039
-0.032602 4.08551 -0.0640816
-0.0328673 4.03513 -0.0757622
-0.0317052 4.00604 -0.0722956
-0.0311097 3.98663 -0.0701973
-0.0525105 4.13088 -0.0941343
-0.0515495 4.18865 -0.100956
-0.0478065 4.24662 -0.107553
-0.048894 4.23692 -0.106491
-0.0489825 4.21768 -0.104198
-0.0493745 4.20804 -0.10308
-0.0497665 4.19839 -0.101962
-0.0640296 4.18894 -0.0950134
-0.0626174 4.1984 -0.0976161
-0.0605269 4.22695 -0.103638
-0.0674463 4.23846 -0.0910491
-0.0666888 4.23713 -0.0993021
-0.0647157 4.14123 -0.0866702
-0.0645924 4.22022 -0.0828772
-0.0642203 4.201 -0.080067
-0.0638482 4.18178 -0.0772567
-0.0664556 4.20044 -0.0826973
-0.0654866 4.22 -0.0839294
-0.056096 4.21182 -0.0754818
-0.0590124 4.24062 -0.0802023
-0.0580403 4.23102 -0.0786288
-0.0549974 4.12493 -0.061939
-0.0540174 4.16365 -0.0678392
-0.0434764 4.2215 -0.0803489
-0.0443754 4.19265 -0.0739613
-0.037734 4.20091 -0.0877495
-0.0364783 4.18125 -0.0872063
-0.0403086 4.24033 -0.0881482
-0.0402454 4.24022 -0.088836
-0.0422382 4.1505 -0.0950597
-0.0835041 4.59145 -0.170967
-0.0864591 4.63942 -0.179623
-0.0790774 4.52435 -0.158628
-0.0913661 4.64017 -0.173746
-0.0912882 4.64003 -0.174581
-0.0870024 4.5728 -0.162895
-0.0876517 4.58248 -0.164167
-0.0845512 4.52606 -0.148124
-0.0855419 4.61305 -0.161714
-0.0850861 4.62265 -0.163689
-0.0867774 4.62251 -0.163822
-0.0811215 4.54648 -0.147287
-0.0834186 4.57498 -0.153502
-0.0838085 4.58451 -0.155544
-0.0809854 4.64172 -0.169666
-0.0737832 4.58378 -0.163109
-0.0793283 4.64092 -0.174493
-0.0776355 4.5921 -0.169924
-0.0822551 4.65943 -0.180683
-0.00381213 0.862163 -0.0497534
0.00114125 0.85774 -0.056152
0.00238675 0.884767 -0.0375914
0.0343555 0.882858 -0.0314236
0.0315909 0.869152 -0.00496637
0.0617256 0.854691 -0.0342446
0.0420965 0.837697 -0.0229798
0.0426185 0.831241 -0.0329759
0.011589 0.832448 -0.0386069
0.0133035 0.831389 -0.0366122
0.018447 0.828214 -0.0306284
0.0206761 0.844471 -0.0708171
0.0663144 0.866097 -0.0948885
0.0467326 0.86627 -0.089355
0.0917985 0.860975 -0.0809155
0.130867 0.84374 -0.163463
0.115038 0.800733 -0.130232
0.121331 0.80136 -0.150246
0.119998 0.810581 -0.166617
0.0890693 0.814209 -0.132912
0.162525 0.821586 -0.211575
0.174939 0.837519 -0.201617
0.149392 0.83872 -0.185598
0.188415 0.838092 -0.202288
0.190781 0.799225 -0.180664
0.183836 0.800328 -0.173373
0.137164 0.80047 -0.176414
0.176018 0.793104 -0.208846
0.157108 0.798066 -0.199438
0.180611 0.790356 -0.203984
0.156575 0.800284 -0.200215
0.231013 0.811679 -0.280198
0.212314 0.819433 -0.258478
0.240149 0.823698 -0.230427
0.211358 0.791195 -0.243856
0.212436 0.800203 -0.257549
0.364436 0.827375 -0.405977
0.349806 0.838453 -0.36578
0.359371 0.837115 -0.383469
0.383538 0.837303 -0.414283
0.392488 0.839433 -0.40623
0.394253 0.833106 -0.391897
0.375566 0.828327 -0.369249
0.384327 0.804198 -0.389399
0.349837 0.817315 -0.394185
0.369839 0.819054 -0.414756
0.392689 0.835574 -0.432224
0.400181 0.83625 -0.438644
0.447612 0.840328 -0.475228
0.44672 0.827722 -0.451009
0.451448 0.813573 -0.46003
0.436806 0.806984 -0.471627
0.538529 0.833056 -0.614668
0.556983 0.820729 -0.600202
0.542817 0.819105 -0.613551
0.541445 0.82076 -0.614525
0.607073 0.85761 -0.664177
0.614144 0.859776 -0.670087
0.642231 0.861997 -0.680844
0.635796 0.858776 -0.674763
0.638691 0.851543 -0.674514
0.598084 0.834784 -0.66771
0.755095 0.916247 -0.774243
0.799366 0.934624 -0.807107
0.782826 0.926525 -0.782839
0.797432 0.932743 -0.794336
0.801487 0.926145 -0.792798
0.790701 0.916634 -0.794898
0.754725 0.899866 -0.767459
0.754725 0.899866 -0.767459
0.840856 0.946792 -0.845899
0.849109 0.953744 -0.848884
0.819494 0.928983 -0.817452
0.833089 0.934688 -0.829891
0.8551 0.944292 -0.846462
0.852267 0.943516 -0.849748
-0.0720372 1.84643 0.02854
-0.0738419 1.85529 0.0226205
-0.0284777 1.84335 -0.0269507
-0.0284777 1.84335 -0.0269507
-0.0561018 1.84668 -0.0218579
-0.01535 1.81987 -0.0172402
-0.115538 1.83291 0.0310018
-0.104787 1.81208 -0.0170362
-0.1198 1.80108 0.017821
-0.119665 1.79805 0.0104463
-0.112236 1.81304 0.0286409
-0.223071 1.82518 0.0313269
-0.186117 1.821 0.0331064
-0.180821 1.81963 -0.0168589
-0.228503 1.81996 -0.00932225
-0.168165 1.79948 -0.0127231
-0.289666 1.82377 0.0435177
-0.279736 1.81053 -3.78625E-4
-0.306185 1.78303 0.0231545
-0.28046 1.78573 0.0355432
-0.328613 1.82125 0.0189646
-0.387235 1.79896 0.0422615
-0.372842 1.78796 0.0505481
-0.372842 1.78796 0.0505481
-0.403673 1.7912 0.0722116
-0.420865 1.79559 0.0780244
-0.420865 1.79559 0.0780244
-0.397798 1.79481 0.082949
-0.506966 1.82489 0.119057
-0.46556 1.8096 0.123853
-0.492111 1.82168 0.14741
-0.538302 1.86383 0.148082
-0.528716 1.8498 0.129567
-0.532521 1.83776 0.129109
-0.52353 1.82419 0.131758
-0.511661 1.82454 0.153833
-0.616799 1.88536 0.186721
-0.625025 1.88625 0.194512
-0.637876 1.88966 0.184023
-0.629539 1.88648 0.179483
-0.64511 1.87541 0.174372
-0.637292 1.8668 0.173334
-0.619678 1.85305 0.17434
-0.631888 1.85963 0.198445
-0.823548 1.9469 0.239285
-0.805486 1.93811 0.237078
-0.834951 1.94697 0.239335
-0.882709 1.98594 0.241868
-0.866433 1.97369 0.243134
-0.880966 1.99019 0.225669
-0.880654 1.99071 0.226609
-0.868725 1.9722 0.218811
-0.902039 1.99349 0.221803
-0.865147 1.95617 0.231496
-1.05999 2.11637 0.232789
-1.06 2.11599 0.23414
-1.0777 2.1278 0.228987
-1.07666 2.12841 0.230714
-1.0603 2.10235 0.225053
-1.07851 2.12356 0.242218
-1.13063 2.17971 0.259216
-1.11585 2.16839 0.252138
-1.13146 2.1827 0.250645
-1.13665 2.17833 0.249823
-1.13787 2.17525 0.254643
-1.09616 2.13371 0.244216
-1.11978 2.16345 0.25491
-1.12808 2.16908 0.25698
-1.11412 2.15578 0.252275
-1.24875 2.33544 0.338703
-1.25412 2.34362 0.341411
-1.24278 2.32871 0.334029
-1.23146 2.31385 0.326515
-1.24429 2.32876 0.331768
-1.23877 2.32145 0.327656
-1.24539 2.32796 0.331768
-1.26203 2.34948 0.344748
-1.25129 2.33429 0.337158
-1.23274 2.31232 0.327588
-1.25539 2.34194 0.342772
0.0645399 1.85197 0.0241269
0.0420106 1.84771 0.00245112
0.0570737 1.86662 0.0368656
0.0411152 1.86918 0.0245209
-9.09875E-4 1.84887 0.0426829
0.0316341 1.84428 0.0662859
0.0270586 1.85569 0.0577076
0.0652563 1.81899 0.0334913
0.0625719 1.83132 0.022713
0.0616816 1.82876 0.0233824
0.11952 1.85555 0.0844798
0.0949482 1.85389 0.100268
0.11069 1.85757 0.0965889
0.0635705 1.83928 0.0894658
0.0499991 1.81893 0.0703432
0.193112 1.84367 0.137888
0.19103 1.81853 0.12018
0.260249 1.83366 0.180088
0.244887 1.8238 0.162253
0.244887 1.8238 0.162253
0.246726 1.83941 0.179123
0.202829 1.8461 0.162632
0.201055 1.83656 0.182554
0.245698 1.80241 0.215721
0.236669 1.79876 0.171371
0.236335 1.81778 0.154389
0.331365 1.82412 0.236698
0.294202 1.82604 0.2612
0.304325 1.80956 0.267665
0.286757 1.81103 0.254027
0.304835 1.79853 0.251153
0.317651 1.79633 0.253733
0.310385 1.7967 0.244689
0.31366 1.81099 0.223078
0.387361 1.83453 0.29444
0.363694 1.84483 0.289617
0.337444 1.84068 0.289294
0.338677 1.84148 0.287794
0.37525 1.82095 0.279792
0.388584 1.85023 0.320734
0.438631 1.85172 0.352174
0.387891 1.84549 0.337508
0.411025 1.82762 0.312384
0.424691 1.82585 0.32595
0.507458 1.84884 0.381773
0.507857 1.85254 0.409342
0.505435 1.82928 0.414775
0.473562 1.83505 0.402078
0.516722 1.82539 0.387133
0.598156 1.84868 0.418028
0.596856 1.84945 0.425759
0.538334 1.82497 0.423456
0.571272 1.8264 0.432036
0.598218 1.83124 0.405824
0.618032 1.83107 0.407947
0.673891 1.81503 0.438315
0.674156 1.81949 0.411232
0.754329 1.81922 0.408725
0.754206 1.81794 0.40818
0.755331 1.82598 0.427914
0.716039 1.8332 0.426573
0.712755 1.80444 0.426372
0.762899 1.80197 0.411592
0.762899 1.80197 0.411592
0.752891 1.80308 0.412096
0.752776 1.8009 0.417252
0.723644 1.81389 0.409472
0.753403 1.80892 0.408648
0.753296 1.80762 0.409174
0.841536 1.81874 0.430186
0.820205 1.82278 0.423719
0.854264 1.79789 0.415432
0.909995 1.81627 0.424926
0.932788 1.8131 0.42804
0.884966 1.8192 0.436983
0.918852 1.80141 0.442337
0.940762 1.80286 0.44652
1.01588 1.83242 0.467026
0.978571 1.80975 0.459769
0.990714 1.80969 0.453427
1.05663 1.83366 0.466249
1.08348 1.83791 0.484439
1.09309 1.83745 0.488391
1.0845 1.82297 0.482247
1.06632 1.82042 0.47322
1.15997 1.83652 0.485436
1.17119 1.83583 0.485967
1.17097 1.82934 0.489221
1.15982 1.82963 0.48939
1.16983 1.82312 0.483482
1.15937 1.8246 0.486808
1.16952 1.82415 0.478194
1.22194 1.82286 0.465389
1.25646 1.82134 0.466085
1.2138 1.83057 0.474598
1.23365 1.81496 0.471573
1.25265 1.81564 0.458547
1.29202 1.81104 0.449302
1.29672 1.79986 0.442192
1.30499 1.79744 0.437756
1.31335 1.79713 0.432111
1.35609 1.78581 0.4094
1.37413 1.77933 0.402471
1.36645 1.78021 0.409786
1.37438 1.77647 0.404745
1.38932 1.76797 0.393761
1.3979 1.76581 0.388826
1.37224 1.7735 0.402934
1.38708 1.76837 0.389696
1.43556 1.75358 0.367383
1.42543 1.75508 0.372474
1.45298 1.74501 0.355614
1.46196 1.74303 0.348575
-0.0491975 2.73695 -0.239076
-0.0420581 2.73672 -0.231159
-0.0400521 2.73436 -0.204762
-0.038166 2.73356 -0.205154
-0.0256769 2.69937 -0.220683
-0.0417514 2.69321 -0.228537
-0.0359659 2.69554 -0.228928
-0.0515571 2.69575 -0.22679
-0.0398917 2.71133 -0.298897
-0.0742761 2.7285 -0.309307
-0.167557 3.46668 0.18913
-0.161283 3.48527 0.224283
-0.173317 3.50342 0.250792
-0.218787 3.56033 0.353116
-0.250909 3.575 0.373873
-0.25203 3.59713 0.402146
-0.250445 3.58058 0.41274
-0.263257 3.60761 0.419708
-0.295758 3.64226 0.459124
-0.309777 3.66851 0.480155
-0.316095 3.67656 0.484549
-0.324502 3.68391 0.487216
-0.33072 3.67512 0.495542
-0.349074 3.71884 0.502969
-0.347818 3.71885 0.505088
-0.415332 3.81555 0.549762
-0.446897 3.86827 0.578796
-0.441856 3.85842 0.575922
-0.465986 3.89792 0.590535
-0.08023 4.02366 -0.064088
-0.150845 4.04087 -0.0883812
-0.154237 4.03572 -0.112914
-0.178159 4.04043 -0.104619
-0.201306 4.07305 -0.117198
-0.308511 4.12691 -0.162914
-0.039844 4.49382 -0.089377
-0.0500885 4.50828 -0.08404
-0.0633415 4.56357 -0.0356025
-0.0656915 4.63568 -0.0013635
-0.629919 1.76963 -0.0944655
-0.630271 1.75751 -0.084664
-0.709494 1.77219 -0.099584
-0.913505 1.8143 -0.187537
-0.933685 1.82275 -0.186359
-1.00791 1.83129 -0.202615
-1.13844 1.8383 -0.181657
-1.18712 1.83782 -0.167233
-1.19762 1.83729 -0.16483
-1.19696 1.83317 -0.163698
-1.24079 1.83376 -0.152147
-1.2413 1.83272 -0.154305
-0.801167 1.85811 0.604024
-0.795073 1.86292 0.605873
-0.875237 1.90766 0.738039
-0.886844 1.92514 0.761462
-0.918327 1.94552 0.800126
-0.925805 1.95473 0.82038
-0.940843 1.9638 0.837726
-1.19452 2.18327 0.198252
-1.29276 2.23772 0.155933
-1.05166 1.85373 -0.216199
-1.08217 1.85963 -0.236352
0.72972 1.8952 0.691109
0.770178 1.9101 0.710238
0.769494 1.89983 0.72705
0.937761 1.97704 0.915184
0.965447 2.00653 0.965307
0.997283 2.03248 1.00681
1.00446 2.03716 1.01654
1.26803 1.82878 0.52907
-0.109355 3.03588 -1.01161
-0.0773405 3.13273 -1.13111
-0.077693 3.13324 -1.13081
-0.276406 3.61925 0.464021
-0.316908 3.70614 0.616424
0.15418 3.48958 -0.0716995
0.202925 3.49113 -0.0831465
0.20219 3.50277 -0.106619
0.218832 3.53132 -0.10636
0.246055 3.53364 -0.12574
0.272733 3.54149 -0.121651
0.402708 3.67294 -0.202337
-0.00698431 0.505236 -0.0823686
-0.0198257 0.495203 -0.0835891
-0.0112529 0.495231 -0.0828653
-0.00906538 0.470262 -0.0830216
0.0188138 0.460364 -0.0808043
0.0145097 0.470341 -0.0810313
0.0145097 0.470341 -0.0810313
-0.0197458 0.450245 -0.084196
-0.00259144 0.445307 -0.0828159
-0.0757087 0.579738 -0.0413563
-0.0774404 0.569762 -0.0400143
-0.0761941 0.524886 -0.0416069
-0.0534512 0.495008 -0.061169
-0.0326605 0.430222 -0.0795031
-0.072014 0.440123 -0.0461568
-0.0767677 0.46006 -0.0419031
-0.0718375 0.460069 -0.0460657
-0.0732162 0.489986 -0.0445414
-0.0540689 0.425196 -0.061488
-0.0655286 0.430162 -0.0517525
-0.0827536 0.460128 0.010921
-0.0823432 0.445159 0.00442306
-0.0815842 0.490033 3.41719E-4
-0.0815312 0.455121 -0.00410413
-0.0809046 0.485034 -0.00825381
-0.0810369 0.470074 -0.00832216
-0.0791393 0.480018 -0.0297085
-0.0808516 0.450122 -0.0126997
-0.0807633 0.460095 -0.0126541
-0.0806706 0.450119 -0.0148428
-0.0781156 0.554811 -0.0336531
-0.0791923 0.51493 -0.0252626
-0.0801411 0.509958 -0.0145695
-0.0786847 0.470036 -0.0361836
-0.0577488 0.465359 0.0587615
-0.0603244 0.485334 0.0552895
-0.055223 0.440387 0.0622797
-0.0657747 0.4953 0.0486233
-0.064437 0.490309 0.050313
-0.0712748 0.500268 0.0420034
-0.0661236 0.460319 0.0489473
-0.0777139 0.550205 0.0333236
-0.0818764 0.550183 0.0283934
-0.0749389 0.550219 0.0366104
-0.082325 0.505208 0.0288099
-0.0642377 0.510298 0.0501279
-0.0709259 0.535249 0.0416795
-0.0711752 0.510263 0.0419109
-0.0841611 0.460226 0.027583
-0.0692475 0.425324 0.0459845
-0.0143272 0.490834 0.0813762
-0.0143172 0.500876 0.0811776
-0.00790753 0.480813 0.0821176
-0.0207667 0.48077 0.081032
-0.0357491 0.500804 0.0793682
-0.0249934 0.541009 0.0794784
-0.0358187 0.430509 0.0807586
-0.0400951 0.440537 0.0801981
-0.0400454 0.490748 0.0792049
0.0625978 0.456031 0.0565163
0.0492578 0.471139 0.0673008
0.03421 0.491288 0.0793676
0.0510297 0.461054 0.0661238
0.0283798 0.561897 0.0820567
0.0350177 0.556864 0.0766118
0.036854 0.541735 0.0755401
0.0403979 0.521565 0.073186
0.028022 0.461012 0.0855492
0.049772 0.430786 0.0681428
0.0836024 0.536641 -0.0200811
0.0822269 0.511463 0.00345159
0.0821618 0.521544 0.00132534
0.0838556 0.511436 -0.0158371
0.084297 0.471108 -0.00947528
0.0834429 0.491282 -0.00515503
0.0841017 0.501352 -0.015854
0.0811189 0.430838 0.0397503
0.0814158 0.440914 0.0333377
0.0815896 0.456031 0.0269335
0.0820531 0.496345 0.00985575
0.0818142 0.491309 0.0141337
0.086063 0.435798 -0.0202505
0.0857011 0.435804 -0.0159641
0.0850859 0.461015 -0.0159218
0.0404979 0.550935 -0.0777485
0.0629515 0.445657 -0.0543889
0.0782924 0.440717 -0.0363729
0.0768268 0.445728 -0.0379548
0.0725861 0.450725 -0.0428236
0.0701235 0.430637 -0.0463564
0.0699672 0.440674 -0.0462334
0.0634796 0.500866 -0.052069
0.0667234 0.47077 -0.0491512
0.0460667 0.460626 -0.0739253
0.0457542 0.480699 -0.0736793
-0.0108129 0.619423 -0.0813544
0.0256699 0.649182 -0.0780641
0.0248218 0.678397 -0.0779239
0.020674 0.678337 -0.0782739
0.0183173 0.688045 -0.0784021
0.0375944 0.595771 -0.0774462
0.0285919 0.619997 -0.0780294
0.0146397 0.600308 -0.0793479
0.0320331 0.644403 -0.0775625
-0.0540264 0.623649 -0.0598531
-0.0414468 0.63343 -0.0705371
-0.0523642 0.618817 -0.0612255
-0.0339974 0.667396 -0.077045
-0.0452739 0.677002 -0.0675859
-0.0361729 0.599558 -0.0747723
-0.0455717 0.5898 -0.066774
-0.0831204 0.725715 0.0219086
-0.081951 0.682008 0.0102221
-0.081951 0.682008 0.0102221
-0.0830154 0.686937 0.0225826
-0.0821964 0.643257 0.0150444
-0.0799494 0.589773 -0.00891838
-0.0801509 0.599481 -0.00701275
-0.0824418 0.604505 0.0198666
-0.0816051 0.618979 0.00924325
-0.0824943 0.623895 0.0195296
-0.0813905 0.604424 0.00742188
-0.0505169 0.683413 0.0634354
-0.0423444 0.673851 0.0732526
-0.0412936 0.698252 0.0741555
-0.0540194 0.639453 0.0599018
-0.0540194 0.639453 0.0599018
-0.0551285 0.619926 0.0588614
-0.0460804 0.649387 0.069169
-0.0662198 0.648923 0.0453134
-0.0470727 0.620112 0.0684036
-0.0484154 0.620081 0.0668132
-0.0458469 0.629891 0.069719
-0.0522681 0.605366 0.0624546
0.0168676 0.714409 0.0786579
0.0149216 0.709479 0.0786266
0.0171234 0.70461 0.0789453
0.0133593 0.689851 0.0790262
0.0193253 0.699741 0.0792639
0.0234732 0.699801 0.0796139
-0.00597313 0.635656 0.0788564
0.001811 0.655374 0.0789818
-0.035931 0.591108 0.0775243
-0.0237432 0.601088 0.078287
-0.0135014 0.606138 0.0790184
-0.0154475 0.601209 0.078987
0.0160453 0.586963 0.082043
0.0117695 0.591802 0.0815493
0.023062 0.636078 0.0813064
-0.00482197 0.591561 0.0801493
0.0632398 0.710131 0.0455267
0.0551456 0.670793 0.0543764
0.0735063 0.690568 0.0378657
0.0550034 0.631513 0.0565118
0.0578222 0.641354 0.0536279
0.0629555 0.631572 0.0497974
0.0625934 0.641389 0.0495993
0.0551845 0.626605 0.0566109
0.0654122 0.651229 0.0467154
0.034005 0.59699 0.0760055
0.0405476 0.592128 0.0707331
0.0401856 0.601945 0.0705349
0.0470903 0.587266 0.0654606
0.0748124 0.61202 0.0407936
0.0731832 0.656196 0.039902
0.0721358 0.641459 0.0415421
0.0807949 0.601902 -0.00805606
0.0777581 0.651082 0.00547219
0.0770572 0.651136 0.0137687
0.0768936 0.64136 0.0201892
0.0774309 0.63153 0.0183132
0.0770747 0.636452 0.0202883
0.076368 0.641401 0.0264116
0.0786691 0.621645 0.00814069
0.0731385 0.705279 0.0354944
0.0743708 0.700289 0.0231487
0.0763331 0.67077 0.0133724
0.0785345 0.587394 0.0254271
0.0767417 0.621794 0.0309561
0.0771037 0.611977 0.0311542
0.0756787 0.631665 0.0390544
0.07673 0.631584 0.0266097
0.0437923 0.591052 -0.0725767
0.0491628 0.591176 -0.0662153
0.0509151 0.615718 -0.0631839
0.0566952 0.640353 -0.0553814
0.0585612 0.591393 -0.0550826
0.069152 0.630839 -0.0410083
0.0725065 0.719122 -0.0335941
0.071537 0.709299 -0.0351248
0.0788871 0.586961 -0.0311971
-0.0249545 1.03945 -0.0800225
-0.0174883 1.03963 -0.0793931
-0.0155043 1.03479 -0.0792935
-0.00874231 1.06427 -0.078318
-0.0150348 1.01526 -0.0795242
-0.010022 1.03981 -0.0787637
-0.00174556 1.08399 -0.0774578
0.00595544 1.0744 -0.0769438
0.00257444 1.05966 -0.0774316
-8.06563E-4 1.04492 -0.0779193
0.0135276 1.14788 -0.0752918
0.0192447 1.14313 -0.0748775
0.010264 1.12825 -0.0758373
0.0127174 1.10388 -0.0759683
-4.65875E-4 1.10845 -0.0770121
0.00128331 1.11338 -0.076797
0.0158751 1.0502 -0.0764456
-0.00208625 1.02045 -0.0783651
0.00654231 1.04998 -0.0772323
0.0207706 1.07964 -0.0756274
0.0138912 1.05504 -0.0765452
-0.065563 1.09315 -0.0555683
-0.065563 1.09315 -0.0555683
-0.0641356 1.08824 -0.0567959
-0.0627201 1.06856 -0.0580796
-0.0741554 1.0881 -0.0483334
-0.0713045 1.07336 -0.0508073
-0.0427201 1.01959 -0.0751916
-0.0484219 1.04906 -0.0702437
-0.0584655 1.01937 -0.0618933
-0.0484457 1.01951 -0.0703559
-0.0513125 1.01454 -0.0679567
-0.0770738 1.0191 -0.0461771
-0.0727796 1.01916 -0.0498039
-0.0713482 1.01918 -0.0510129
-0.0756027 1.06838 -0.0471992
-0.0859677 1.15675 0.0138508
-0.0855148 1.1469 0.00835025
-0.0840592 1.08792 -0.00971675
-0.083942 1.0683 -0.0113828
-0.084919 1.05369 -3.0E-5
-0.0827816 1.01916 -0.0258162
-0.0830869 1.02409 -0.0221325
-0.0830971 1.01919 -0.0220823
-0.0827105 1.05347 -0.026168
-0.0863895 1.02933 0.0170242
-0.0862013 1.04401 0.0150065
-0.0854633 1.01943 0.00592275
-0.0547119 1.147 0.0530411
-0.0532997 1.11788 0.0550909
-0.0497087 1.12287 0.0592822
-0.0591716 1.09337 0.0484491
-0.0602101 1.06902 0.0475329
-0.0577934 1.06911 0.0503958
-0.0518196 1.07904 0.0573469
-0.082795 1.01475 0.0214693
-0.0804802 1.02942 0.024023
-0.0503395 1.0402 0.0596028
-0.0562454 1.02055 0.0528579
-0.0610787 1.02038 0.0471321
-0.0236068 1.27551 -0.0750356
-0.030799 1.27547 -0.0756421
-0.013131 1.24114 -0.0751689
-0.0097135 1.22149 -0.0754616
-0.0101154 1.17722 -0.0768026
-0.00822803 1.18707 -0.076353
-0.0275602 1.23614 -0.0765309
0.00606716 1.17731 -0.075438
-0.00112509 1.17727 -0.0760445
-0.0349757 1.21151 -0.0778824
-0.0659955 1.24571 -0.0520476
-0.0587 1.19656 -0.0600766
-0.051612 1.20647 -0.065689
-0.0588952 1.18671 -0.0602854
-0.0494405 1.17695 -0.0686437
-0.0567359 1.22611 -0.0606146
-0.0500383 1.21633 -0.0666444
-0.0515144 1.21139 -0.0655846
-0.0659832 1.1768 -0.054673
-0.0858458 1.1764 0.0138733
-0.0843509 1.20599 0.00371119
-0.0830948 1.21589 -0.0086665
-0.0834519 1.22079 -0.00316794
-0.0802358 1.24556 -0.0350112
-0.080842 1.24553 -0.0278189
-0.0785663 1.31451 -0.0371461
-0.0787179 1.3145 -0.035348
-0.0788591 1.29974 -0.0374592
-0.0795526 1.28002 -0.0342806
-0.081361 1.26517 -0.0166131
-0.0823163 1.18643 -0.0254753
-0.081276 1.21599 -0.0302433
-0.0164434 2.76666 -0.0310095
-0.0145179 2.75815 -0.0315701
-0.00768094 2.69881 -0.0360431
0.0127284 2.64736 -0.0386754
0.00830044 2.64754 -0.0390411
-0.0323444 2.69889 -0.025491
-0.0349089 2.67357 -0.0262882
-0.0209956 2.73287 -0.0311169
-0.0226947 2.73282 -0.0296836
-0.02667 2.71588 -0.0283039
-0.0238799 2.64862 -0.0385519
-0.0250023 2.66542 -0.0356316
-0.0403491 2.67855 0.0288829
-0.0475094 2.67941 0.0204232
0.0211413 2.68064 -0.0287886
0.0221179 2.65497 -0.0293043
0.0218143 2.63798 -0.030776
-0.0193288 3.09783 -0.0337713
-0.0483675 3.12944 -0.0276535
-0.0440005 3.09593 -0.024266
-0.0453163 3.13794 -0.0319976
-0.0425543 3.13803 -0.0343291
-0.0441592 3.17163 -0.0400481
-0.0474998 3.1547 -0.0336914
-0.0376087 3.12136 -0.0349669
-0.0526263 3.0799 -0.00185137
-0.0573669 3.12191 -0.00904763
-0.0568741 3.10638 0.0092625
-0.0497028 3.19555 0.0207305
-0.0534431 3.15985 0.0159022
-0.0522929 3.1601 0.017274
-0.0479094 3.1349 0.0222262
-0.0456091 3.13541 0.0249697
-0.0514324 3.12541 0.0179327
-0.0402203 3.09299 0.0309372
-0.0256049 3.10375 0.0348454
-0.0310572 3.12909 0.0310698
-0.0118554 3.09669 0.0370748
-0.0112864 3.10541 0.0360104
-0.002252 3.19132 0.00764806
-0.002857 3.09727 0.0327927
-9.5E-5 3.09735 0.0304611
0.0112262 3.11465 0.0147685
-9.32625E-4 3.0916 -0.0303387
0.00221513 3.16233 -0.0216898
-0.0380686 3.29246 -0.0539546
-0.0311798 3.23313 -0.0471687
-0.0298975 3.25917 -0.0497447
-0.0809667 3.31765 -0.0224721
-0.0730676 3.25675 -0.0255499
-0.0706006 3.22443 -0.00584969
-0.0693147 3.21554 -0.00794006
-0.0697911 3.32983 -0.00366075
-0.0592554 3.22792 0.0095465
-0.04528 3.33324 0.0018595
-0.0475335 3.23034 0.0163512
-0.0449622 3.24781 0.0141081
-0.0341573 3.26648 0.0125106
-0.0266926 3.30028 -0.00147275
-0.0266461 3.26675 0.00772225
-0.0151754 3.27545 -0.00425937
-0.00814881 3.24814 -0.0214756
-0.00714769 3.23336 -0.00252237
-0.0191468 3.2441 -0.0415159
-0.0180937 3.2444 -0.0402574
-0.0193371 3.2878 -0.0394008
-0.0107218 3.24654 -0.0314474
-0.0682977 3.74155 -0.079447
-0.0688326 3.73294 -0.0795014
-0.0592056 3.70684 -0.0786329
-0.0604535 3.70687 -0.0787475
-0.0772452 3.74216 -0.0731519
-0.0807759 3.70773 -0.0722119
-0.0833439 3.67324 -0.0720732
-0.0852692 3.67335 -0.0704707
-0.0899543 3.68271 -0.0510796
-0.0856087 3.7254 -0.0637306
-0.0831543 3.75993 -0.0626216
-0.0801389 3.7001 -0.0373601
-0.0853954 3.72586 -0.046547
-0.0816807 3.7431 -0.0440018
-0.0810265 3.75171 -0.0441742
-0.0594617 3.67382 -0.0304126
-0.0709323 3.70846 -0.0327855
-0.0676667 3.7771 -0.0351241
-0.0529169 3.72486 -0.0344524
-0.0525768 3.67345 -0.0351173
-0.0393771 3.74083 -0.0571328
-0.0571029 3.92963 -0.0799207
-0.0571543 3.91253 -0.0797192
-0.0583142 3.89549 -0.0796206
-0.0572057 3.89543 -0.0795178
-0.0579397 3.8356 -0.0788642
-0.0552456 3.80979 -0.078305
-0.0635336 3.81881 -0.0791768
-0.0613166 3.81869 -0.0789712
-0.0596796 3.81004 -0.0787162
-0.072456 3.87946 -0.0697402
-0.0688755 3.82778 -0.0753219
-0.0702485 3.81074 -0.0750459
-0.073829 3.86242 -0.0694642
-0.0743465 3.84533 -0.0699004
-0.0768685 3.84568 -0.0595955
-0.0763616 3.84554 -0.0651458
-0.0788266 3.8201 -0.0602916
-0.0729291 3.88812 -0.0658358
-0.0734129 3.87955 -0.0679179
-0.0719353 3.86298 -0.0468179
-0.0636981 3.87154 -0.0392792
-0.0656593 3.82855 -0.0372514
-0.0386722 3.80956 -0.0457384
-0.0442829 3.80133 -0.0410667
-0.0446426 3.88787 -0.0407798
-0.0429314 3.88774 -0.0422042
-0.0492179 3.83631 -0.0369637
-0.0348848 3.86077 -0.0572387
-0.0354968 3.84356 -0.058007
-0.0359549 3.83499 -0.0567261
-0.0344793 3.86065 -0.0616789
-0.0369198 3.82657 -0.0498948
-0.0383651 3.80906 -0.066449
-0.0467361 3.82648 -0.0777248
-0.045043 3.81785 -0.0750888
-0.0575435 4.24595 -0.108341
-0.0582281 4.30509 -0.118082
-0.0587755 4.24595 -0.10795
-0.0724589 4.34034 -0.110508
-0.0720211 4.33195 -0.108854
-0.0716465 4.32367 -0.106512
-0.0658779 4.32558 -0.0982228
-0.0676284 4.274 -0.093433
-0.0630769 4.26661 -0.0869357
-0.0583054 4.33476 -0.0988676
-0.0542764 4.29282 -0.0899279
-0.0427077 4.2587 -0.0889597
-0.0467236 4.27572 -0.0902806
-0.0469839 4.29243 -0.0947269
-0.0556824 4.33486 -0.0991454
-0.0480727 4.25915 -0.0844947
-0.0463145 4.30894 -0.100579
-0.0476749 4.27234 -0.110038
-0.0449921 4.27301 -0.106881
-0.0657216 4.38892 -0.132668
-0.0662474 4.42275 -0.138964
-0.0648479 4.43136 -0.140422
-0.0607114 4.38941 -0.132288
-0.0748955 4.40602 -0.131316
-0.0772746 4.42361 -0.130303
-0.0791423 4.44904 -0.13418
-0.0785717 4.44067 -0.13234
-0.0759263 4.39925 -0.120945
-0.0778028 4.47575 -0.133089
-0.0767319 4.47609 -0.131837
-0.0762376 4.44204 -0.126566
-0.0664292 4.42673 -0.119302
-0.0663525 4.44355 -0.123084
-0.0632136 4.44338 -0.125188
-0.0668948 4.46849 -0.129979
-0.0553676 4.40833 -0.127807
-0.059239 4.44222 -0.132532
-0.0564781 4.41709 -0.127481
-0.0602976 4.45088 -0.132753
-0.0631623 4.47622 -0.136708
-0.0631623 4.47622 -0.136708
-0.0581056 4.40717 -0.132385
-0.0614581 4.45804 -0.140263
0.252997 0.833476 -0.26977
0.292962 0.813391 -0.277992
0.280999 0.812743 -0.265847
0.280999 0.812743 -0.265847
0.319938 0.831908 -0.322144
0.341239 0.815487 -0.326578
0.310737 0.794934 -0.334489
0.435987 0.834089 -0.484318
0.471763 0.83981 -0.510738
0.459134 0.838948 -0.498852
0.46899 0.818485 -0.480589
0.475459 0.823169 -0.486462
0.48272 0.833025 -0.545484
0.502385 0.839585 -0.551426
0.494322 0.83815 -0.536443
0.665537 0.871558 -0.71992
0.658762 0.870566 -0.714453
0.645477 0.867567 -0.688369
0.646207 0.867113 -0.687628
0.652075 0.854015 -0.686752
0.64932 0.848276 -0.693549
0.69902 0.889554 -0.723426
0.7012 0.88765 -0.72147
0.709266 0.87686 -0.733459
0.715516 0.879939 -0.738562
0.724663 0.888207 -0.752217
0.877681 0.961985 -0.868705
0.879093 0.959749 -0.868131
0.878841 0.960256 -0.86819
0.867552 0.949429 -0.858648
0.855948 0.949086 -0.858064
0.919252 0.976565 -0.921371
0.941195 0.980915 -0.935434
0.923601 0.971932 -0.918861
0.908256 0.969373 -0.910056
0.908068 0.969753 -0.910102
0.961416 0.991729 -0.964315
0.962943 0.987995 -0.964173
0.954963 0.987014 -0.958297
-0.273319 1.79306 0.00233756
-0.267888 1.79207 0.00163019
-0.232678 1.80354 -0.0109764
-0.23004 1.78883 -0.003023
-0.412781 1.83026 0.0992069
-0.658784 1.88651 0.180294
-0.655072 1.86461 0.184413
-0.742957 1.91399 0.229503
-0.708498 1.91326 0.210592
-0.716502 1.90086 0.194077
-0.719529 1.89068 0.198144
-0.733853 1.89349 0.217822
-0.743536 1.9126 0.229157
-0.703649 1.89353 0.221883
-0.915862 2.00712 0.24085
-0.908339 2.00231 0.241496
-0.909311 2.0007 0.242719
-0.914637 2.00882 0.226695
-0.990878 2.05393 0.237032
-0.966877 2.04218 0.234154
-0.974598 2.04566 0.222285
-0.991074 2.05313 0.219946
-0.983108 2.0345 0.234871
-1.1361 2.18808 0.260401
-1.14168 2.19376 0.264126
-1.15396 2.20839 0.262769
-1.16712 2.21899 0.269111
-1.14379 2.18467 0.253167
-1.14932 2.18912 0.260122
-1.16088 2.20926 0.274482
-1.1914 2.25802 0.297321
-1.20209 2.2729 0.299879
-1.20589 2.2693 0.301437
-1.19083 2.2485 0.2935
0.213005 1.827 0.137843
0.237464 1.843 0.181811
0.227046 1.83898 0.19491
0.212724 1.84274 0.177048
0.202382 1.83924 0.180955
0.193907 1.80926 0.179539
0.219044 1.81919 0.204002
0.181193 1.79745 0.14784
0.201566 1.79828 0.168769
0.209446 1.79881 0.17752
0.191667 1.7992 0.162864
0.190994 1.79968 0.163812
0.178403 1.80252 0.161702
0.181768 1.80012 0.156959
0.252635 1.7931 0.197804
0.215609 1.79465 0.169639
0.229234 1.8091 0.153557
0.2504 1.80219 0.173094
0.232023 1.80308 0.15879
0.238422 1.80865 0.160709
0.218241 1.80374 0.148061
0.278074 1.8323 0.194457
0.288218 1.82601 0.19991
0.250078 1.83762 0.210951
0.27573 1.84108 0.223035
0.293742 1.84221 0.235762
0.267421 1.84096 0.215822
0.247841 1.82453 0.222215
0.296823 1.8061 0.259668
0.256891 1.80965 0.228773
0.275958 1.80282 0.240788
0.312649 1.79654 0.250845
0.292643 1.79739 0.23929
0.252445 1.7961 0.207309
0.267948 1.7947 0.206405
0.272016 1.79992 0.192394
0.273525 1.79832 0.199607
0.28458 1.81288 0.195358
0.304875 1.80958 0.215817
0.316576 1.80585 0.228648
0.501358 1.85608 0.39556
0.479354 1.8414 0.403474
0.448948 1.844 0.386823
0.455762 1.82271 0.388291
0.460795 1.82294 0.390785
0.474097 1.81917 0.388527
0.473586 1.81955 0.389268
0.44835 1.81535 0.36938
0.445794 1.81728 0.373084
0.441502 1.81664 0.369892
0.538201 1.85508 0.407956
0.590057 1.84671 0.432202
0.546928 1.85167 0.418291
0.557488 1.85018 0.422364
0.531384 1.85424 0.41139
0.534887 1.8515 0.418185
0.600617 1.84522 0.436274
0.583475 1.84396 0.433556
0.527438 1.84642 0.421799
0.576912 1.82999 0.434867
0.820746 1.81866 0.412607
0.792361 1.81673 0.40976
0.79784 1.81506 0.409457
0.786634 1.81583 0.408972
0.842003 1.79522 0.422512
0.842003 1.79522 0.422512
0.813743 1.79746 0.419026
0.819406 1.79723 0.419208
0.774796 1.80769 0.408483
0.860212 1.81266 0.413624
0.899339 1.81187 0.420959
0.871461 1.81094 0.415099
0.854723 1.81061 0.41168
0.88271 1.80922 0.416575
0.92134 1.80206 0.430387
0.910014 1.80084 0.429146
0.910284 1.80181 0.426835
0.881766 1.79803 0.425466
0.888136 1.8066 0.418984
-0.02824 2.7058 0.00326375
-0.0292439 2.70343 0.003226
0.0107966 2.71617 -0.00232238
0.00478962 2.7185 -0.00931075
0.00148613 2.7201 -4.50375E-4
0.009571 2.7141 -0.0268008
0.00904675 2.71214 -0.0350528
-0.00844987 2.67077 -0.00288825
-0.0224164 2.67665 -8.025E-5
-0.0029805 2.72021 -0.0647961
-0.00386338 2.72091 -0.0567064
-0.00190938 2.68351 -0.0830239
-0.0309959 2.68105 -0.054365
-0.04397 2.70123 -0.0747081
-0.0496415 2.72081 -0.153049
-0.0381041 2.72532 -0.138146
-0.00934975 2.71873 -0.127231
-0.00877863 2.70359 -0.153074
-0.0197969 2.68161 -0.119736
-0.0193173 2.69131 -0.177452
-0.0434219 2.68668 -0.132121
-0.0790814 2.74712 -0.369304
-0.0615036 2.75323 -0.329881
-0.0530134 2.75107 -0.315577
-0.0384331 2.73911 -0.343649
-0.0383549 2.72838 -0.330387
-0.0399684 2.72486 -0.331014
-0.0651404 2.72091 -0.345232
-0.0772106 2.75761 -0.382512
-0.0844916 2.76264 -0.428363
-0.066366 2.76569 -0.381305
-0.0529961 2.76414 -0.383071
-0.0544681 2.76821 -0.397722
-0.0461731 2.7466 -0.396863
-0.0632795 2.73867 -0.413549
-0.0808421 2.79067 -0.47394
-0.0628874 2.78244 -0.441991
-0.0739405 2.79917 -0.49077
-0.0797436 2.75472 -0.44858
-0.0865796 2.77045 -0.488736
-0.0812951 2.75536 -0.448205
-0.0793649 2.80888 -0.523948
-0.0649602 2.79758 -0.501886
-0.0660186 2.78926 -0.532391
-0.072311 2.78788 -0.550466
-0.069187 2.7825 -0.53397
-0.0778223 2.77029 -0.5085
-0.0955095 2.79185 -0.526614
-0.0843261 2.82161 -0.573832
-0.0805411 2.82217 -0.590818
-0.0807319 2.81187 -0.602443
-0.0860529 2.80164 -0.596499
-0.115504 2.84695 -0.657865
-0.10284 2.83977 -0.629811
-0.0890091 2.83239 -0.63525
-0.0935223 2.83836 -0.665249
-0.0998274 2.82187 -0.65348
-0.0967691 2.81633 -0.639398
-0.0985749 2.82239 -0.65356
-0.0945408 2.82064 -0.646679
-0.115957 2.82917 -0.64769
-0.117889 2.87772 -0.726409
-0.106974 2.87044 -0.721591
-0.100515 2.84763 -0.6947
-0.110526 2.83467 -0.688916
-0.111721 2.83831 -0.696766
-0.110526 2.83467 -0.688916
-0.126525 2.85686 -0.706094
-0.131014 2.90576 -0.800351
-0.111981 2.87676 -0.766475
-0.110548 2.86961 -0.750531
-0.126423 2.87109 -0.758582
-0.117267 2.91694 -0.803197
-0.111242 2.91102 -0.806758
-0.1238 2.92673 -0.844082
-0.126055 2.91274 -0.825001
-0.124253 2.93257 -0.84973
-0.112073 2.96073 -0.867652
-0.112364 2.95647 -0.861083
-0.112757 2.97423 -0.886993
-0.105939 2.97218 -0.897562
-0.106228 2.96335 -0.884585
-0.112992 2.96093 -0.89522
-0.119675 2.94443 -0.869728
-0.121732 2.95557 -0.880729
-0.119776 2.97234 -0.906111
-0.123453 2.99262 -0.932265
-0.112259 3.00078 -0.949234
-0.112499 3.00139 -0.948867
-0.108575 2.98069 -0.920574
-0.137239 3.02261 -1.00147
-0.135869 3.0176 -1.01276
-0.137601 3.01858 -1.00255
-0.130467 3.01195 -0.978815
-0.138353 3.03104 -1.03675
-0.138355 3.03012 -1.03697
-0.176008 3.04207 -1.09517
-0.183099 3.04332 -1.10911
-0.187224 3.04355 -1.12477
-0.173024 3.03598 -1.09749
-0.173024 3.03598 -1.09749
-0.170312 3.03484 -1.09015
-0.184573 3.0395 -1.10877
-0.222801 3.04926 -1.18216
-0.203369 3.0435 -1.14291
-0.201346 3.04614 -1.14373
-0.211647 3.04782 -1.16815
-0.219832 3.04795 -1.18385
-0.216529 3.0458 -1.17585
-0.221732 3.04672 -1.18307
-0.219082 3.04708 -1.17438
-0.206784 3.04287 -1.15122
-0.046071 3.42164 -0.0286795
-0.0663712 3.43086 -0.0395052
-0.0831038 3.42202 -0.0311407
-0.0787922 3.41977 -0.0419552
-0.078925 3.40156 -0.0374831
-0.0826833 3.40824 -0.0342066
-0.0816962 3.4107 -0.04095
-0.073973 3.43639 0.0336291
-0.0678202 3.43518 0.0174756
-0.0986044 3.42815 0.006223
-0.0930638 3.40862 1.08125E-4
-0.0941652 3.41213 -0.00110762
-0.0991887 3.4108 0.0224839
-0.0693819 3.42347 0.0320669
-0.115734 3.44148 0.0536919
-0.10987 3.44241 0.0428926
-0.111438 3.43907 0.0429906
-0.101473 3.41274 0.0465457
-0.0980339 3.44473 0.0936074
-0.105651 3.45555 0.0945567
-0.135657 3.43935 0.101307
-0.122354 3.46471 0.143819
-0.124161 3.46412 0.15068
-0.165109 3.47244 0.166328
-0.154973 3.46475 0.144115
-0.142132 3.44422 0.150399
-0.129406 3.45518 0.159451
-0.126555 3.44599 0.149008
-0.162789 3.48677 0.174916
-0.168512 3.48468 0.180075
-0.175001 3.47658 0.194681
-0.170148 3.46897 0.186783
-0.1617 3.46254 0.186859
-0.161954 3.46109 0.180547
-0.156801 3.46825 0.200198
-0.169775 3.47667 0.217835
-0.162777 3.5038 0.227606
-0.193384 3.49818 0.237202
-0.185341 3.48881 0.218066
-0.184979 3.49525 0.249762
-0.1742 3.48184 0.227038
-0.163522 3.48791 0.228802
-0.206638 3.51473 0.266703
-0.20504 3.51518 0.25926
-0.204031 3.51068 0.262224
-0.205848 3.51615 0.281945
-0.200724 3.50823 0.265041
-0.191879 3.50735 0.269674
-0.207576 3.55308 0.309474
-0.217709 3.54569 0.292927
-0.225748 3.53721 0.316956
-0.23238 3.54511 0.33346
-0.227241 3.56923 0.339003
-0.231238 3.57044 0.343554
-0.248148 3.56793 0.364741
-0.241368 3.56044 0.377822
-0.21792 3.55619 0.348558
-0.236925 3.58422 0.388637
-0.245006 3.58994 0.388854
-0.236585 3.58348 0.382324
-0.240899 3.58542 0.379633
-0.246596 3.58697 0.382989
-0.253245 3.57278 0.380512
-0.253245 3.57278 0.380512
-0.250454 3.56753 0.38429
-0.24329 3.58367 0.407032
-0.238804 3.57869 0.397592
-0.272237 3.60002 0.42004
-0.274625 3.59875 0.427675
-0.26698 3.58994 0.413158
-0.264479 3.58784 0.424135
-0.266708 3.58874 0.422372
-0.269102 3.59967 0.439774
-0.272878 3.60305 0.444094
-0.263958 3.61105 0.443482
-0.257949 3.60382 0.434399
-0.276826 3.62989 0.456697
-0.284818 3.63959 0.461062
-0.297083 3.65575 0.476268
-0.290768 3.62548 0.449886
-0.287535 3.61485 0.45281
-0.285179 3.61868 0.461312
-0.286321 3.63101 0.469297
-0.31412 3.66011 0.475568
-0.316706 3.65512 0.480296
-0.320894 3.66216 0.489744
-0.308615 3.66319 0.490136
-0.339854 3.70542 0.49731
-0.339126 3.69267 0.493149
-0.34759 3.6983 0.500763
-0.341035 3.69054 0.494796
-0.358171 3.71551 0.513281
-0.339044 3.69429 0.506723
-0.332179 3.69263 0.504709
-0.33356 3.69124 0.505534
-0.374704 3.75729 0.523512
-0.371783 3.75234 0.520249
-0.357144 3.72673 0.505979
-0.361912 3.72649 0.518629
-0.388152 3.77679 0.533838
-0.384891 3.77163 0.531829
-0.385311 3.77216 0.53012
-0.399598 3.7857 0.53413
-0.397198 3.78019 0.531588
-0.393192 3.76801 0.527837
-0.400421 3.78137 0.542153
-0.406751 3.79152 0.546916
-0.403586 3.78644 0.544535
-0.464965 3.89755 0.5926
-0.45241 3.87711 0.583244
-0.468831 3.90309 0.593122
-0.45741 3.88243 0.582796
-0.458236 3.88021 0.586496
-0.0525919 3.43078 -0.0606443
-0.0530955 3.44491 -0.0433976
-0.0372146 3.44487 -0.0354764
-0.0320496 3.43009 -0.0254694
-0.0454221 3.4269 -0.0225804
-0.0427409 3.41001 -0.0305264
0.0327097 3.44561 -0.0407737
0.00624725 3.44294 -0.0356692
0.0157616 3.42421 -0.045255
7.90875E-4 3.41813 -0.0561419
0.0713283 3.47166 -0.0702066
0.0647523 3.47087 -0.0673919
0.0590976 3.46801 -0.0598716
0.0633081 3.45815 -0.0493574
0.0538586 3.43859 -0.0491446
0.067253 3.43797 -0.0546881
0.0389637 3.44542 -0.0803433
0.123144 3.47757 -0.0843914
0.0994261 3.47715 -0.0752555
0.106995 3.47992 -0.0721845
0.10745 3.47843 -0.066009
0.108679 3.47567 -0.059735
0.107257 3.4473 -0.0623654
0.106776 3.44512 -0.0752073
0.161022 3.47962 -0.0566593
0.161022 3.47962 -0.0566593
