ply
format ascii 1.0
comment VCGLIB generated
element vertex 1725
property float x
property float y
property float z
element face 0
property list uchar int vertex_indices
end_header
-0.087424 1.888500 0.133611
-0.057460 1.914794 0.124131
-0.062789 1.885797 0.126324
-0.090831 1.860729 0.132732
-0.093863 1.832902 0.132400
-0.065906 1.857996 0.125260
-0.070105 1.830296 0.125342
-0.030158 2.025331 0.146877
-0.022856 1.993539 0.142123
-0.007637 2.019358 0.168402
-0.005723 1.991044 0.164178
-0.050663 1.969056 0.121572
-0.020466 1.965177 0.137567
-0.053760 1.941229 0.121555
-0.001295 1.962476 0.158200
-0.015200 1.936425 0.135412
0.001920 1.949690 0.154676
0.007042 1.933515 0.149494
-0.083895 1.890279 0.037121
-0.045351 1.885565 0.047080
-0.101655 1.892837 0.015504
-0.102364 1.882336 0.014912
-0.095863 1.891997 0.022837
-0.105199 1.864519 0.013325
-0.088371 1.867817 0.037890
-0.109516 1.837384 0.015211
-0.094570 1.835109 0.038791
-0.080480 1.861418 0.049295
-0.074039 1.849508 0.060246
-0.080029 1.832874 0.062654
-0.067748 1.831234 0.071897
-0.049425 1.886039 0.047081
-0.069529 1.859940 0.058218
-0.041139 1.856655 0.057285
-0.033201 1.832992 0.072075
-0.052589 1.829342 0.077518
-0.005970 1.881915 0.005879
0.002010 1.823992 0.033136
-0.018831 1.910710 0.130553
-0.021934 1.880992 0.128423
0.011835 1.904911 0.143262
0.010889 1.876884 0.141033
-0.029927 1.853862 0.122846
-0.039124 1.826957 0.113543
-0.018937 1.852535 0.124945
-0.009307 1.823444 0.115338
0.012232 1.848627 0.137207
0.034596 1.819292 0.073055
0.041087 1.827735 0.081141
0.026759 1.819816 0.090175
-0.044355 2.048949 0.294926
-0.047091 2.035218 0.292985
-0.048801 2.021334 0.292536
-0.034171 2.033846 0.287158
-0.035270 2.019871 0.287598
-0.049802 2.007344 0.293118
-0.047834 1.992999 0.294074
-0.036476 2.007754 0.289293
-0.021769 2.032552 0.280577
-0.022931 2.018585 0.280926
-0.016187 2.031964 0.277835
-0.012946 2.017576 0.274185
-0.035435 1.991615 0.291436
-0.011743 1.989192 0.276657
-0.068745 1.981336 0.294260
-0.050569 1.978987 0.295996
-0.052687 1.965301 0.297394
-0.054464 1.951400 0.298028
-0.058934 1.937837 0.297547
-0.034936 1.963260 0.296240
-0.053152 1.937144 0.298439
-0.035213 1.949162 0.297876
-0.036015 1.935839 0.298819
-0.008652 1.960450 0.285232
-0.007221 1.935398 0.295839
0.011805 1.940733 0.317398
0.007285 1.929632 0.319364
-0.001758 2.039598 0.234614
0.009935 2.015350 0.254871
0.013555 2.033065 0.257505
-0.002420 2.016522 0.266595
-0.001868 2.002300 0.264938
0.008990 2.001351 0.255535
0.008932 1.993358 0.256604
0.027054 1.983887 0.311350
0.009005 1.987209 0.257595
0.021845 1.966211 0.279027
0.016189 1.957630 0.282033
0.028849 1.984243 0.286466
0.017696 1.956707 0.314989
0.046459 1.982102 0.361817
0.066030 2.006947 0.386018
0.081085 2.003486 0.412574
0.059278 1.978330 0.390891
0.077315 1.975744 0.412316
0.026333 1.957211 0.336767
0.039577 1.952962 0.367739
0.018320 1.927750 0.345673
0.032691 1.925532 0.369654
0.055011 1.950637 0.390979
0.067500 1.977117 0.402159
0.056823 1.964516 0.391159
0.065821 1.963225 0.401886
0.076378 1.961777 0.411525
0.064806 1.949266 0.401150
0.077264 1.947588 0.411173
0.051959 1.922822 0.390220
0.053469 1.936731 0.390611
0.064106 1.935275 0.400194
0.075520 1.936880 0.408873
0.063492 1.921276 0.399177
0.069715 1.920457 0.403328
0.040980 2.010608 0.304523
0.043566 2.014720 0.303167
0.057027 2.012438 0.327768
0.059006 2.007251 0.359962
0.037980 1.982016 0.337734
0.076293 1.919602 0.407250
-0.061973 1.910021 0.296778
-0.079696 1.898149 0.289805
-0.063593 1.896123 0.296464
-0.065298 1.882234 0.296209
-0.060442 1.923928 0.297154
-0.054622 1.923223 0.298339
-0.055929 1.909279 0.298476
-0.038112 1.921263 0.300018
-0.043783 1.907805 0.301091
-0.035826 1.906833 0.303101
-0.056927 1.895288 0.299064
-0.047788 1.894147 0.302441
-0.033075 1.892414 0.309194
-0.054471 1.880842 0.301983
-0.039014 1.878817 0.311879
-0.018251 1.876303 0.332884
-0.019946 1.933299 0.297502
-0.018501 1.919482 0.301957
-0.026386 1.905669 0.305958
-0.005996 1.902846 0.325741
-0.087797 1.871063 0.282852
-0.079821 1.870019 0.287893
-0.067150 1.868359 0.296057
-0.080564 1.856033 0.286967
-0.069171 1.854501 0.296023
-0.092328 1.829481 0.275281
-0.072762 1.826740 0.295639
-0.056100 1.864126 0.304398
-0.056203 1.852735 0.307309
-0.043947 1.865253 0.313876
-0.047992 1.851599 0.315254
-0.027836 1.848799 0.335200
-0.071146 1.840639 0.295956
-0.061114 1.839244 0.305961
-0.063329 1.825406 0.306061
-0.051597 1.823769 0.317974
-0.050604 1.838470 0.316433
-0.038137 1.850221 0.325383
-0.041069 1.836455 0.325984
-0.030191 1.834975 0.335399
-0.042982 1.822587 0.325874
-0.031446 1.821040 0.334830
0.008904 1.900575 0.349353
0.027960 1.897846 0.371858
0.000884 1.873260 0.352060
0.017393 1.899335 0.360435
0.004573 1.886950 0.350931
0.014284 1.885587 0.361159
0.026366 1.883934 0.372011
0.011804 1.871776 0.361445
0.024442 1.870087 0.371012
0.049802 1.894917 0.388836
0.037629 1.896528 0.380325
0.036567 1.882574 0.379621
0.049654 1.880871 0.387495
0.036123 1.868557 0.378486
0.051475 1.866592 0.386303
-0.010109 1.846429 0.348672
-0.009494 1.874690 0.342296
-0.011165 1.863814 0.344652
-0.002062 1.859495 0.352671
-0.004104 1.845640 0.352651
0.009943 1.857902 0.361299
0.008819 1.843954 0.360639
0.020678 1.842422 0.367270
0.022576 1.856478 0.369463
-0.004915 1.817600 0.350328
-0.005032 1.831672 0.351854
0.008616 1.829913 0.359336
0.014983 1.829098 0.362594
0.009858 1.815710 0.357812
0.022820 1.828099 0.366431
0.023669 1.813952 0.364394
0.036219 1.854487 0.376975
0.050150 1.856123 0.383870
0.036793 1.840368 0.375130
0.044016 1.839458 0.378171
0.036972 1.812272 0.370183
0.065658 1.906924 0.399464
0.076958 1.905474 0.405342
0.062803 1.896060 0.396505
0.078348 1.891274 0.402928
0.057159 1.879914 0.391177
0.064300 1.879012 0.394281
0.065810 1.864799 0.391783
0.075036 1.863661 0.394601
0.080198 1.877504 0.400003
0.083009 1.862683 0.396788
0.052211 1.838431 0.381378
0.067626 1.836525 0.386272
0.068626 1.846740 0.388740
0.088006 1.848064 0.394267
0.053365 1.824254 0.379128
0.038848 1.823463 0.373070
0.062065 1.823179 0.381845
0.070541 1.822140 0.384149
0.082055 1.820750 0.386305
0.075122 1.807568 0.381732
0.087165 1.834792 0.390794
0.090376 1.819759 0.387315
0.206714 1.883638 0.312027
0.190504 1.849923 0.290912
0.193124 1.851605 0.319964
0.165408 1.804056 0.262751
0.167927 1.798247 0.316287
0.162269 1.798465 0.335714
0.178468 1.826070 0.278297
0.180911 1.825484 0.291589
0.179211 1.823872 0.327861
0.169523 1.798507 0.296645
-0.104585 1.750207 0.105128
-0.116807 1.724218 0.070944
-0.129674 1.807739 0.182872
-0.136684 1.808136 0.201315
-0.131975 1.779618 0.191744
-0.119062 1.801772 0.153314
-0.115717 1.778490 0.158007
-0.132748 1.751539 0.190898
-0.115167 1.750128 0.162886
-0.116700 1.722077 0.164733
-0.134411 1.756805 0.228567
-0.115489 1.748216 0.248766
-0.128239 1.722149 0.220764
-0.112658 1.724210 0.244354
-0.095603 1.804882 0.133946
-0.100755 1.777210 0.137646
-0.070719 1.806055 0.120357
-0.089393 1.776636 0.097583
-0.104994 1.749725 0.128439
-0.106727 1.749650 0.140630
-0.112298 1.722089 0.141628
-0.189537 1.618143 0.149951
-0.118318 1.718675 0.112612
-0.125983 1.696208 0.110210
-0.131539 1.668852 0.102051
-0.131609 1.668559 0.115315
-0.124951 1.697265 0.058311
-0.124470 1.696735 0.079215
-0.130105 1.669180 0.080258
-0.134649 1.641037 0.101605
-0.134529 1.640731 0.114463
-0.134734 1.612697 0.108743
-0.131186 1.641637 0.057395
-0.133142 1.641363 0.079488
-0.129923 1.613168 0.063311
-0.132012 1.613128 0.075811
-0.133188 1.723008 0.190124
-0.139148 1.673244 0.188942
-0.119804 1.694261 0.164295
-0.135494 1.695511 0.189685
-0.123119 1.666476 0.163550
-0.126428 1.693845 0.216612
-0.109269 1.691347 0.238649
-0.127296 1.665810 0.214329
-0.117462 1.692557 0.227361
-0.126688 1.679810 0.215349
-0.117025 1.678452 0.225611
-0.108278 1.677186 0.236513
-0.109185 1.665132 0.232639
-0.146492 1.640449 0.188289
-0.151820 1.613088 0.179197
-0.125921 1.638615 0.163551
-0.130550 1.611027 0.160894
-0.129520 1.609877 0.206276
-0.127245 1.633915 0.212061
-0.103555 1.634528 0.228885
-0.097368 1.605783 0.221680
-0.116233 1.694363 0.141484
-0.117893 1.666408 0.139753
-0.115443 1.809858 0.016457
-0.100731 1.807607 0.040201
-0.120414 1.782236 0.017036
-0.107481 1.780164 0.042021
-0.087628 1.805517 0.065067
-0.061351 1.820429 0.082625
-0.073494 1.803323 0.089214
-0.097104 1.778348 0.068789
-0.124411 1.754517 0.016936
-0.113692 1.752666 0.043466
-0.130714 1.727525 -0.003400
-0.127936 1.726749 0.016507
-0.119795 1.725158 0.044835
-0.107572 1.749454 0.074073
0.006892 1.810146 0.034663
-0.045848 1.815530 0.105553
-0.022778 1.814869 0.089629
-0.006325 1.818131 0.112742
-0.130110 1.699154 0.001556
-0.130158 1.698851 0.015168
-0.125506 1.697611 0.045930
-0.129336 1.669761 0.050706
-0.128471 1.666491 0.009811
-0.123751 1.641857 0.009572
-0.129473 1.641766 0.042920
-0.112575 1.641091 -0.014025
-0.108384 1.617691 -0.004643
-0.092605 1.639224 -0.034219
-0.086739 1.612447 -0.021949
-0.066097 1.636380 -0.044900
-0.063100 1.623158 -0.038698
-0.059698 1.607144 -0.031511
-0.092729 1.815460 0.274117
-0.105019 1.803021 0.264242
-0.093580 1.801485 0.273266
-0.075021 1.798846 0.294326
-0.095524 1.773558 0.271734
-0.077268 1.770950 0.293005
-0.055542 1.796093 0.315706
-0.053442 1.809907 0.317238
-0.044137 1.808642 0.325235
-0.031981 1.807033 0.333759
-0.045022 1.794670 0.324409
-0.032470 1.793021 0.332655
-0.066081 1.797560 0.305093
-0.076132 1.784896 0.293657
-0.067232 1.783615 0.304452
-0.068366 1.769668 0.303798
-0.059739 1.768464 0.312607
-0.057345 1.783352 0.314423
-0.034798 1.765134 0.331391
-0.106431 1.775041 0.262339
-0.117049 1.762434 0.251298
-0.106320 1.760969 0.260817
-0.096133 1.759558 0.270714
-0.105943 1.746870 0.259110
-0.096695 1.745554 0.269662
-0.079506 1.743053 0.291677
-0.105460 1.732761 0.257329
-0.097138 1.731537 0.268526
-0.104690 1.719780 0.255466
-0.097025 1.717871 0.267045
-0.080243 1.715005 0.289303
-0.078411 1.757004 0.292358
-0.069388 1.755710 0.303067
-0.065357 1.755147 0.307188
-0.070196 1.741829 0.302137
-0.059266 1.754306 0.313009
-0.059677 1.740286 0.311851
-0.047300 1.766777 0.323109
-0.048167 1.752803 0.322270
-0.035688 1.751162 0.330567
-0.048330 1.738759 0.320939
-0.078663 1.727563 0.292376
-0.070490 1.727699 0.300946
-0.059583 1.726216 0.310342
-0.070193 1.713608 0.299295
-0.059019 1.712098 0.308504
-0.045396 1.710303 0.317723
-0.032755 1.708684 0.324187
-0.017188 1.819178 0.343728
-0.018846 1.806466 0.341299
-0.020953 1.791543 0.338693
-0.033475 1.779061 0.331912
-0.025959 1.778098 0.335807
-0.004281 1.803475 0.348441
-0.003828 1.789368 0.346680
-0.019196 1.777239 0.338954
-0.002930 1.775191 0.345737
-0.024150 1.763776 0.336580
-0.004460 1.761875 0.344164
0.001526 1.788689 0.349131
0.010898 1.787501 0.353411
0.011478 1.773381 0.351562
0.021276 1.772156 0.355282
0.014603 1.758948 0.350499
0.024691 1.799788 0.362236
0.030610 1.799041 0.364784
-0.034940 1.736245 0.329247
-0.003122 1.733053 0.340410
-0.004294 1.747232 0.342673
0.008852 1.731593 0.343323
0.013127 1.745029 0.347528
-0.020322 1.735169 0.335407
-0.034482 1.722919 0.326837
-0.011703 1.734106 0.338041
-0.017632 1.718574 0.332433
0.001667 1.718459 0.337907
-0.018750 1.706947 0.328878
0.025899 1.785635 0.359939
0.027401 1.771394 0.357457
0.029220 1.757150 0.354744
0.039903 1.797872 0.368627
0.054872 1.796012 0.373788
0.055847 1.806000 0.376363
0.041672 1.783633 0.365949
0.048364 1.782807 0.368029
0.058952 1.781509 0.370897
0.074648 1.794539 0.378065
0.068348 1.780379 0.372479
0.043901 1.769948 0.362688
0.037868 1.756095 0.356836
0.047516 1.754923 0.358982
0.057461 1.753726 0.360718
0.062949 1.766991 0.366718
0.090610 1.791751 0.378206
0.094998 1.804969 0.382858
0.079511 1.779055 0.373558
0.085958 1.778306 0.373477
0.103875 1.787612 0.375341
0.101364 1.776562 0.371267
0.067406 1.752536 0.362110
0.075609 1.751572 0.362498
0.083607 1.765922 0.368677
0.096648 1.763127 0.366444
0.091964 1.750732 0.361518
0.014992 1.730845 0.344777
0.032485 1.741848 0.351739
0.031377 1.728866 0.347931
0.001064 1.705845 0.334042
0.017802 1.716501 0.341372
0.023762 1.715783 0.342430
0.020349 1.703225 0.337706
0.040050 1.713834 0.344740
0.039863 1.703404 0.340915
0.047426 1.726945 0.350196
0.051596 1.739292 0.354864
0.071946 1.738838 0.357129
0.054959 1.726052 0.350901
0.065009 1.724876 0.351154
0.086177 1.736412 0.355287
0.054259 1.698203 0.339590
0.060325 1.711740 0.345584
0.075111 1.709785 0.343265
-0.095005 1.689140 0.262705
-0.078381 1.686696 0.285115
-0.076705 1.659235 0.279467
-0.057187 1.684760 0.303565
-0.028186 1.680102 0.318112
-0.052329 1.655181 0.298058
-0.094122 1.661020 0.255192
-0.088671 1.632259 0.252509
-0.084560 1.657015 0.269270
-0.090709 1.646525 0.255375
-0.083350 1.645398 0.267245
-0.074215 1.644094 0.277875
-0.081636 1.631165 0.264605
-0.072630 1.629873 0.275325
-0.083858 1.603652 0.246262
-0.068347 1.601320 0.269448
-0.047835 1.626607 0.292035
-0.032550 1.625638 0.297894
-0.021502 1.651941 0.310211
-0.028503 1.638195 0.303246
-0.016180 1.636711 0.305402
-0.013059 1.623328 0.301363
-0.043875 1.600930 0.285545
-0.039739 1.611594 0.290978
-0.028449 1.610210 0.294069
-0.019534 1.609133 0.295750
-0.024824 1.595782 0.290096
-0.008334 1.607800 0.297040
-0.005203 1.594877 0.293204
-0.010625 1.678185 0.322755
-0.005879 1.691374 0.328007
0.005262 1.690027 0.330228
0.008831 1.675968 0.326122
0.013526 1.689033 0.331615
0.028641 1.687232 0.333401
0.029215 1.674605 0.328366
0.018322 1.658838 0.320337
0.048988 1.684952 0.333685
0.043262 1.671566 0.327669
0.017692 1.646649 0.314742
0.032069 1.644959 0.315463
0.037736 1.658219 0.321694
0.053839 1.656404 0.320473
0.046933 1.641236 0.314187
0.058178 1.669274 0.325813
-0.002193 1.649008 0.312817
-0.009472 1.635910 0.306311
0.003446 1.620398 0.302521
0.006721 1.631415 0.306907
-0.001309 1.606969 0.297642
0.026807 1.631832 0.309317
0.009690 1.619662 0.302913
0.020976 1.618337 0.303401
0.035679 1.613887 0.302232
0.043190 1.629716 0.309058
0.015192 1.603784 0.297798
0.011412 1.591486 0.293565
0.032823 1.602985 0.298053
0.018761 1.590628 0.293696
0.028431 1.589502 0.293701
0.113917 1.775202 0.366808
0.116527 1.747134 0.348157
0.145060 1.772267 0.336344
0.150635 1.785700 0.342398
0.129589 1.773018 0.355864
0.134516 1.745563 0.325082
0.081436 1.723256 0.349314
0.095077 1.693779 0.325105
0.104362 1.717266 0.335027
0.121548 1.721508 0.320389
0.115348 1.691867 0.305350
0.152160 1.773441 0.248177
0.154462 1.772672 0.270256
0.145977 1.745404 0.273286
0.145518 1.745036 0.291840
0.156564 1.771146 0.303037
0.141158 1.745117 0.310656
0.144722 1.717993 0.245511
0.145676 1.689570 0.250977
0.138147 1.717989 0.279404
0.134176 1.690301 0.277776
0.063642 1.641358 0.312149
0.068479 1.654732 0.317239
0.077068 1.639910 0.307060
0.079017 1.645501 0.309047
0.070214 1.696603 0.337275
0.064196 1.683137 0.331463
0.078063 1.681623 0.327015
0.080409 1.687831 0.329482
0.083153 1.695002 0.332381
0.073252 1.668202 0.322053
0.090940 1.681945 0.320882
0.086003 1.666855 0.315981
0.108509 1.664609 0.299478
0.056452 1.625902 0.306120
0.053438 1.614603 0.301382
0.072219 1.626495 0.302043
0.039571 1.602209 0.297626
0.044460 1.587426 0.292818
0.048771 1.601161 0.296631
0.063308 1.599547 0.293156
0.066788 1.612313 0.297172
0.059692 1.585947 0.289935
0.089363 1.638632 0.300323
0.084775 1.625177 0.295687
0.080412 1.611689 0.291379
0.097133 1.623889 0.289043
0.100326 1.637022 0.293615
0.092948 1.610375 0.284994
0.073115 1.584500 0.284840
0.079097 1.598696 0.286872
0.088517 1.594268 0.280964
0.085753 1.583170 0.278603
0.146581 1.661155 0.256371
0.133337 1.662260 0.275626
0.144191 1.633232 0.256973
0.125982 1.631275 0.275748
0.117679 1.607796 0.271725
0.109734 1.577906 0.264648
0.138506 1.605801 0.252779
0.102378 2.026311 0.435059
0.092249 2.001909 0.424818
0.078914 1.989644 0.412644
0.089924 1.988128 0.422944
0.087773 1.974332 0.420856
0.088904 1.981680 0.422003
0.101142 2.000697 0.432589
0.112694 2.027271 0.444422
0.101516 2.014720 0.433772
0.112923 2.013187 0.442818
0.128154 2.011220 0.451319
0.113403 1.999077 0.441039
0.126698 2.000088 0.448340
0.101013 1.986649 0.431234
0.101288 1.972560 0.429598
0.114236 1.984933 0.439013
0.119995 1.984202 0.441661
0.115443 1.971230 0.436517
0.129641 1.982997 0.445269
0.142138 2.009476 0.456443
0.151491 2.008334 0.458783
0.145451 1.993161 0.453006
0.160944 2.007198 0.460327
0.165464 1.993077 0.455544
0.169993 2.006127 0.461078
0.180282 1.991008 0.453462
0.185964 2.004055 0.459932
0.144905 1.981141 0.448724
0.159223 1.979457 0.449487
0.154321 1.966410 0.443438
0.175556 1.977965 0.447058
0.168856 1.964436 0.440916
0.102278 1.958400 0.427463
0.109428 1.957501 0.430365
0.118392 1.956393 0.433225
0.130091 1.954972 0.435803
0.134234 1.966230 0.441092
0.088937 1.946066 0.418322
0.089781 1.931921 0.416289
0.099409 1.930718 0.419866
0.104117 1.943928 0.424768
0.092937 1.917496 0.414689
0.106264 1.929877 0.421794
0.108734 1.915567 0.418626
0.119363 1.928295 0.424274
0.123147 1.939902 0.428801
0.114768 1.914842 0.419627
0.137723 1.954062 0.436742
0.143263 1.939915 0.431218
0.125893 1.927516 0.425103
0.137297 1.926174 0.425742
0.131208 1.910727 0.420247
0.148703 1.910888 0.419751
0.147855 1.952876 0.437024
0.158126 1.937760 0.429383
0.151485 1.922978 0.424090
0.085171 1.890426 0.405268
0.091926 1.904928 0.411391
0.095401 1.889172 0.408035
0.105249 1.887984 0.409855
0.095396 1.861177 0.399598
0.099320 1.873068 0.404098
0.111151 1.901996 0.415223
0.115562 1.886758 0.410973
0.127872 1.899302 0.416107
0.123151 1.885868 0.411277
0.134896 1.898488 0.415933
0.144059 1.897442 0.415034
0.119234 1.872742 0.406823
0.101705 1.860416 0.400748
0.114022 1.858952 0.402074
0.124243 1.857763 0.402028
0.134844 1.870539 0.405704
0.130518 1.857045 0.401450
0.107077 1.842265 0.396036
0.129107 1.844704 0.396619
0.107029 1.831797 0.392454
0.120786 1.830220 0.391368
0.099899 1.818642 0.387642
0.110668 1.803452 0.380726
0.200912 2.002624 0.456813
0.206447 2.014826 0.464366
0.195381 1.991526 0.450486
0.216236 2.003079 0.454170
0.182551 1.962948 0.436217
0.185600 1.970046 0.439564
0.188327 1.976225 0.442582
0.201723 1.974782 0.437448
0.206296 1.986893 0.444605
0.236928 1.989668 0.436675
0.197223 1.961717 0.430501
0.164405 1.951378 0.434949
0.177262 1.949599 0.430561
0.172161 1.936221 0.425179
0.174281 1.941853 0.427404
0.190297 1.948209 0.424902
0.167538 1.922772 0.420492
0.180555 1.921385 0.414805
0.184701 1.934484 0.419588
0.176246 1.907889 0.410575
0.209264 1.932352 0.405287
0.225743 1.956702 0.411875
0.248346 1.985233 0.358730
0.253890 1.998816 0.361495
0.236177 1.958902 0.339392
0.238515 1.957983 0.367867
0.250697 1.983838 0.408165
0.237272 1.957564 0.392710
0.243414 1.969590 0.399780
0.252570 1.983919 0.394958
0.212785 1.904664 0.365240
0.228512 1.934577 0.335603
0.223845 1.930360 0.376320
0.216999 1.905151 0.322122
0.216924 1.904683 0.343146
0.158620 1.895824 0.411594
0.161697 1.907811 0.415880
0.140658 1.884526 0.410221
0.154095 1.882361 0.407050
0.172199 1.895333 0.406585
0.167472 1.880920 0.401888
0.145126 1.855421 0.398079
0.149902 1.868975 0.402534
0.163001 1.867448 0.397423
0.159230 1.856650 0.393574
0.188496 1.878896 0.383228
0.198554 1.902207 0.390542
0.178732 1.852075 0.373099
0.134993 1.828655 0.387414
0.137807 1.835667 0.390436
0.148183 1.828587 0.381786
0.140301 1.842002 0.393097
0.153201 1.840633 0.387242
0.116500 1.817083 0.385953
0.129625 1.815317 0.381643
0.124382 1.801961 0.376054
0.126475 1.807369 0.378274
0.142051 1.814019 0.375097
0.137090 1.801830 0.369744
0.167607 1.825458 0.360992
0.172735 1.837453 0.366612
0.156121 1.798894 0.348358
0.190545 1.851427 0.341038
0.201642 1.877171 0.351355
0.184946 1.851656 0.359678
0.119528 1.788546 0.371030
0.131541 1.787310 0.363884
-0.369776 1.615630 0.207651
-0.365759 1.608521 0.235998
-0.355381 1.606705 0.262765
-0.360148 1.579651 0.229077
-0.349922 1.578034 0.256068
-0.364694 1.632326 0.168512
-0.360075 1.609419 0.167252
-0.360237 1.580970 0.179615
-0.362896 1.580883 0.197104
-0.346102 1.608255 0.146853
-0.357269 1.549655 0.189330
-0.345998 1.579889 0.151283
-0.345351 1.551583 0.156102
-0.344105 1.523116 0.161993
-0.350379 1.523379 0.182594
-0.355333 1.551228 0.222946
-0.345760 1.553792 0.250717
-0.351873 1.523160 0.199940
-0.349859 1.522555 0.216239
-0.340030 1.520795 0.243389
-0.337703 1.604155 0.284440
-0.315159 1.601115 0.302719
-0.332920 1.575552 0.278214
-0.312235 1.574959 0.295586
-0.301245 1.600168 0.309664
-0.329386 1.560304 0.275903
-0.297831 1.612946 0.313540
-0.281253 1.610931 0.317251
-0.261712 1.608617 0.318964
-0.280197 1.568704 0.309447
-0.282599 1.594226 0.314202
-0.281843 1.582931 0.312040
-0.263898 1.580779 0.314789
-0.269359 1.567388 0.311834
-0.243896 1.606561 0.318139
-0.262827 1.595494 0.317144
-0.246312 1.592782 0.316662
-0.235676 1.605636 0.316728
-0.248769 1.579010 0.315127
-0.261027 1.566390 0.313076
-0.251200 1.565233 0.313629
-0.328334 1.546968 0.272126
-0.321212 1.568302 0.286465
-0.319807 1.559786 0.284625
-0.307767 1.558188 0.293229
-0.317836 1.545526 0.281806
-0.306026 1.543952 0.290570
-0.324525 1.518463 0.266579
-0.303494 1.515576 0.285915
-0.277403 1.539744 0.304771
-0.286317 1.513362 0.295318
-0.272880 1.553774 0.308751
-0.260437 1.552269 0.311220
-0.253791 1.551480 0.311899
-0.258196 1.537954 0.309465
-0.237036 1.549092 0.311891
-0.274737 1.511911 0.299860
-0.276291 1.526128 0.302389
-0.259187 1.526208 0.307369
-0.260773 1.510189 0.304082
-0.244130 1.508175 0.307447
-0.341437 1.493011 0.172563
-0.339156 1.492979 0.222518
-0.334570 1.492123 0.236691
-0.332328 1.481110 0.234018
-0.343604 1.499861 0.209608
-0.335207 1.465226 0.183094
-0.334106 1.464727 0.199471
-0.328394 1.463380 0.229494
-0.329517 1.444500 0.194239
-0.327241 1.435829 0.195523
-0.322370 1.434652 0.222402
-0.315919 1.408448 0.217926
-0.320924 1.489979 0.261179
-0.299695 1.486013 0.281133
-0.316883 1.465379 0.255874
-0.296648 1.458643 0.275361
-0.289699 1.502914 0.291192
-0.270695 1.497386 0.298126
-0.286857 1.485394 0.288423
-0.272065 1.485154 0.294877
-0.256593 1.495639 0.302761
-0.247078 1.494475 0.305197
-0.253078 1.481167 0.301367
-0.268594 1.455049 0.289797
-0.256161 1.453488 0.294795
-0.310091 1.432645 0.247843
-0.291838 1.430037 0.269116
-0.303284 1.401282 0.239943
-0.286345 1.401487 0.262281
-0.293080 1.442924 0.272794
-0.283420 1.456804 0.283206
-0.281650 1.442687 0.280457
-0.266150 1.439270 0.287307
-0.279585 1.428418 0.277572
-0.323389 1.605978 0.130650
-0.324783 1.577907 0.132700
-0.295780 1.603038 0.118566
-0.300360 1.576122 0.119592
-0.325631 1.552976 0.135079
-0.326804 1.521648 0.137916
-0.302219 1.547372 0.120358
-0.304771 1.519473 0.120724
-0.268798 1.600055 0.111579
-0.272867 1.572383 0.109736
-0.234949 1.599357 0.109676
-0.243033 1.569042 0.103894
-0.276546 1.544653 0.108461
-0.280349 1.516941 0.107007
-0.248915 1.541641 0.099414
-0.254231 1.514155 0.095759
-0.238213 1.535600 0.310673
-0.239507 1.521689 0.309254
-0.237757 1.507419 0.308068
-0.191318 1.589593 0.175057
-0.192208 1.589518 0.182934
-0.185737 1.588759 0.183176
-0.188449 1.584779 0.179863
-0.167454 1.581726 0.266265
-0.159225 1.582903 0.226960
-0.152570 1.555522 0.235509
-0.157983 1.555637 0.258190
-0.145778 1.528377 0.247600
-0.327492 1.493471 0.140993
-0.327403 1.465178 0.145200
-0.333590 1.465446 0.165103
-0.307216 1.491558 0.121244
-0.309284 1.463588 0.122313
-0.324958 1.435078 0.154378
-0.310411 1.435476 0.124752
-0.308666 1.406935 0.131368
-0.315112 1.407344 0.146434
-0.327586 1.435823 0.174590
-0.324165 1.421715 0.180652
-0.321561 1.411995 0.185431
-0.322440 1.422016 0.158537
-0.323685 1.421881 0.170863
-0.319191 1.407378 0.165863
-0.284282 1.489249 0.105363
-0.287402 1.461435 0.104902
-0.259195 1.486617 0.092614
-0.262528 1.458835 0.091842
-0.289301 1.433439 0.106216
-0.289109 1.405130 0.110573
-0.264180 1.430802 0.093516
-0.264720 1.402602 0.096809
-0.237972 1.493379 0.306774
-0.237918 1.479313 0.305292
-0.267431 1.426867 0.283567
-0.251585 1.438891 0.293490
-0.241418 1.437628 0.296964
-0.247995 1.424429 0.291286
-0.234759 1.436812 0.298755
-0.232835 1.422558 0.295968
-0.259974 1.392873 0.277485
-0.231661 1.394378 0.289575
-0.233272 1.591310 0.314634
-0.235664 1.563442 0.312851
-0.229161 1.604918 0.314954
-0.216262 1.603549 0.309095
-0.217597 1.589608 0.309193
-0.204568 1.602360 0.301485
-0.205237 1.588320 0.302552
-0.234349 1.577365 0.313612
-0.218892 1.575662 0.309348
-0.220135 1.561708 0.309578
-0.205910 1.574281 0.303611
-0.206628 1.560248 0.304606
-0.182814 1.586087 0.285926
-0.193639 1.587146 0.294800
-0.193867 1.573040 0.296508
-0.194239 1.558955 0.298007
-0.182831 1.571949 0.287941
-0.183016 1.557837 0.289711
-0.221566 1.547782 0.309534
-0.223245 1.533892 0.309131
-0.207588 1.546251 0.305248
-0.208802 1.532293 0.305519
-0.225015 1.520017 0.308595
-0.226776 1.506140 0.308072
-0.194865 1.543981 0.299268
-0.202030 1.531561 0.303036
-0.195553 1.530871 0.300172
-0.183828 1.543815 0.291788
-0.183477 1.529625 0.293118
-0.208230 1.518141 0.305136
-0.196391 1.516857 0.300993
-0.210495 1.504300 0.305622
-0.197337 1.502858 0.301655
-0.183778 1.515530 0.294719
-0.184346 1.501475 0.295932
-0.163869 1.556093 0.268319
-0.162334 1.527583 0.274630
-0.161480 1.499176 0.279951
-0.143129 1.497550 0.257402
-0.228660 1.492282 0.307370
-0.230883 1.478474 0.306175
-0.235549 1.464976 0.303839
-0.236797 1.451648 0.301323
-0.212499 1.490434 0.305884
-0.198409 1.488878 0.302134
-0.214224 1.476544 0.305751
-0.199586 1.474914 0.302460
-0.185216 1.487465 0.296705
-0.186191 1.473471 0.297325
-0.215635 1.462632 0.304971
-0.200957 1.460979 0.302505
-0.216783 1.448708 0.303372
-0.202696 1.447099 0.302013
-0.187159 1.459476 0.297955
-0.188256 1.445499 0.298398
-0.221806 1.435256 0.300874
-0.225544 1.421674 0.297474
-0.213950 1.434333 0.301241
-0.204876 1.433285 0.300881
-0.210116 1.419843 0.299021
-0.189649 1.431568 0.298411
-0.191408 1.417690 0.297891
-0.230138 1.407048 0.292998
-0.211185 1.405150 0.296526
-0.193497 1.403863 0.296889
-0.212134 1.392001 0.294165
-0.195840 1.390073 0.295520
-0.172388 1.500247 0.288704
-0.173035 1.486204 0.289802
-0.173835 1.472183 0.290677
-0.161886 1.485096 0.281399
-0.162499 1.471048 0.282546
-0.174462 1.458137 0.291805
-0.175457 1.446068 0.293189
-0.162852 1.456960 0.284072
-0.162867 1.451092 0.284896
-0.162834 1.442818 0.286137
-0.142461 1.469171 0.262451
-0.152062 1.470047 0.273107
-0.152075 1.455909 0.275127
-0.151629 1.444413 0.277424
-0.141833 1.454937 0.265404
-0.140577 1.441695 0.269114
-0.182921 1.430825 0.296597
-0.185298 1.417003 0.296811
-0.175637 1.430032 0.294173
-0.176654 1.416044 0.294732
-0.162817 1.428675 0.288200
-0.163121 1.414580 0.289797
-0.186468 1.403060 0.296183
-0.187152 1.389068 0.295216
-0.178001 1.402106 0.294811
-0.179619 1.388207 0.294496
-0.163799 1.400542 0.290849
-0.164796 1.386551 0.291439
-0.150742 1.427429 0.281144
-0.150281 1.413220 0.283854
-0.138772 1.426199 0.273935
-0.137424 1.411858 0.277935
-0.150240 1.399074 0.285952
-0.150946 1.387374 0.287408
-0.137001 1.405426 0.279469
-0.144433 1.398446 0.283861
-0.136617 1.397597 0.281149
-0.136357 1.383418 0.283565
-0.312243 1.381397 0.177275
-0.309131 1.377076 0.207388
-0.301494 1.348210 0.199192
-0.303393 1.383131 0.137606
-0.297065 1.347034 0.160736
-0.289542 1.319236 0.171426
-0.286921 1.376523 0.117835
-0.285532 1.363922 0.121643
-0.264401 1.374275 0.101351
-0.283458 1.347725 0.126952
-0.263982 1.347967 0.105746
-0.279143 1.318800 0.137307
-0.283496 1.319025 0.149718
-0.274323 1.296703 0.143379
-0.280120 1.292255 0.185738
-0.274293 1.346914 0.115661
-0.273257 1.332619 0.119207
-0.281303 1.332610 0.132219
-0.273016 1.318377 0.124508
-0.263734 1.331755 0.108438
-0.263412 1.317567 0.110946
-0.261919 1.289063 0.117196
-0.297061 1.375090 0.232975
-0.289513 1.346209 0.224820
-0.274656 1.399801 0.271245
-0.283153 1.386980 0.258724
-0.271881 1.385460 0.267864
-0.263624 1.384387 0.272811
-0.271235 1.373343 0.263311
-0.256084 1.369424 0.272403
-0.244437 1.367938 0.278142
-0.254251 1.346179 0.265602
-0.222955 1.337198 0.280409
-0.296590 1.347307 0.212754
-0.294458 1.339735 0.210511
-0.286076 1.334164 0.221221
-0.272036 1.339300 0.246185
-0.296878 1.333661 0.194506
-0.292409 1.332825 0.208393
-0.292122 1.320776 0.191116
-0.288067 1.318327 0.203919
-0.281211 1.317252 0.216139
-0.265079 1.314857 0.238893
-0.254380 1.284167 0.228386
-0.244882 1.312053 0.258810
-0.218809 1.309206 0.273889
-0.238713 1.285412 0.248181
-0.267401 1.259057 0.164308
-0.258187 1.260574 0.126417
-0.252168 1.231046 0.139538
-0.256232 1.231145 0.156039
-0.271279 1.284523 0.205951
-0.263721 1.259248 0.198160
-0.262089 1.280890 0.216305
-0.268012 1.273741 0.202598
-0.259457 1.272494 0.213633
-0.249833 1.271140 0.223923
-0.255241 1.258009 0.209247
-0.245491 1.256642 0.219449
-0.254718 1.229386 0.186844
-0.233963 1.226313 0.215762
-0.226161 1.253926 0.239971
-0.202411 1.250407 0.257756
-0.219367 1.229191 0.232761
-0.195016 1.221899 0.249361
-0.246239 1.206888 0.148616
-0.245033 1.201124 0.179344
-0.232341 1.199075 0.204497
-0.234620 1.174197 0.171655
-0.223704 1.170084 0.195583
-0.235268 1.213431 0.207984
-0.225911 1.212104 0.218460
-0.215513 1.210672 0.228209
-0.223357 1.197786 0.215233
-0.213121 1.196501 0.224991
-0.190047 1.193277 0.243006
-0.205931 1.165564 0.216990
-0.187624 1.177720 0.239743
-0.227545 1.379842 0.287944
-0.217451 1.378603 0.290742
-0.223781 1.365348 0.286305
-0.209511 1.377642 0.292366
-0.198457 1.376324 0.293752
-0.208591 1.363489 0.290280
-0.201423 1.362627 0.291475
-0.187435 1.375035 0.293969
-0.181542 1.374355 0.293737
-0.185554 1.360758 0.292431
-0.166117 1.372608 0.291555
-0.167821 1.358723 0.291115
-0.204782 1.348989 0.288628
-0.186680 1.346557 0.290578
-0.207069 1.338545 0.286032
-0.187683 1.332911 0.288341
-0.169895 1.344893 0.290137
-0.172297 1.331112 0.288680
-0.154084 1.371263 0.289091
-0.159282 1.357756 0.289887
-0.152454 1.356985 0.288849
-0.136575 1.369311 0.285287
-0.137329 1.355283 0.286230
-0.160365 1.343804 0.289198
-0.154074 1.343087 0.288530
-0.158386 1.329510 0.287874
-0.138610 1.341335 0.286404
-0.140259 1.327441 0.286045
-0.213516 1.322014 0.279998
-0.203941 1.320838 0.282703
-0.193235 1.319542 0.284881
-0.199550 1.306294 0.280010
-0.184316 1.318478 0.286015
-0.175088 1.317389 0.286659
-0.180456 1.303990 0.283555
-0.214785 1.294193 0.270376
-0.200471 1.295972 0.276671
-0.210410 1.279668 0.266921
-0.181610 1.291333 0.280316
-0.191523 1.277320 0.273492
-0.159489 1.315575 0.286552
-0.142136 1.313581 0.285353
-0.160487 1.302737 0.284958
-0.144245 1.299757 0.284323
-0.177319 1.275591 0.276800
-0.168016 1.274470 0.278441
-0.161586 1.287726 0.282377
-0.146680 1.285980 0.282820
-0.157294 1.273190 0.279834
-0.149659 1.272286 0.280525
-0.170779 1.246811 0.269349
-0.173648 1.260702 0.273002
-0.154487 1.257982 0.276687
-0.166654 1.219791 0.263335
-0.179212 1.191862 0.249761
-0.228508 1.567363 0.103346
-0.199534 1.619920 0.122918
-0.196641 1.591139 0.118117
-0.207031 1.564779 0.107026
-0.178959 1.591681 0.142000
-0.193436 1.563063 0.112886
-0.170714 1.560005 0.131041
-0.221191 1.516025 0.092291
-0.219991 1.538325 0.097129
-0.190744 1.534670 0.108119
-0.163109 1.535712 0.121725
-0.184812 1.503722 0.102300
-0.126605 1.587885 0.070321
-0.124214 1.555755 0.079772
-0.132624 1.556074 0.108854
-0.149136 1.501801 0.100916
-0.140525 1.524301 0.107340
-0.125649 1.527689 0.081762
-0.131431 1.500273 0.077428
-0.158127 1.585750 0.174099
-0.167134 1.569050 0.163597
-0.135752 1.583524 0.157404
-0.146170 1.558576 0.146068
-0.139836 1.583016 0.200711
-0.143856 1.555337 0.198940
-0.149752 1.555581 0.218441
-0.117701 1.580479 0.198969
-0.120611 1.594367 0.202693
-0.111220 1.607635 0.211149
-0.105224 1.592899 0.208712
-0.094284 1.588434 0.217778
-0.102634 1.578572 0.205680
-0.140143 1.526460 0.208821
-0.130956 1.495347 0.232527
-0.117177 1.523302 0.192372
-0.103685 1.495394 0.218302
-0.121036 1.610480 0.136168
-0.132958 1.591166 0.109639
-0.128013 1.583060 0.138147
-0.092822 1.577204 0.215619
-0.113515 1.555791 0.192346
-0.089860 1.548784 0.210664
-0.099279 1.550118 0.200231
-0.111843 1.537706 0.190548
-0.099207 1.536049 0.198737
-0.089828 1.534720 0.209197
-0.102681 1.522338 0.199716
-0.092447 1.520922 0.209580
-0.233107 1.455556 0.085399
-0.223355 1.482572 0.086975
-0.215894 1.453606 0.082991
-0.193271 1.479000 0.090031
-0.202696 1.452128 0.080397
-0.235440 1.427624 0.086083
-0.237391 1.399636 0.087323
-0.211865 1.425056 0.078316
-0.214844 1.397248 0.076847
-0.175941 1.449247 0.070074
-0.167790 1.474942 0.087065
-0.142149 1.473860 0.068309
-0.152776 1.446903 0.054528
-0.194095 1.397141 0.061932
-0.168014 1.392620 0.040515
-0.164767 1.407130 0.043076
-0.184241 1.422208 0.062077
-0.161514 1.419929 0.045894
-0.121278 1.605824 0.031378
-0.102196 1.582979 0.009232
-0.111365 1.583700 0.024509
-0.099837 1.567191 0.014890
-0.117067 1.584084 0.036844
-0.113526 1.555275 0.046073
-0.118330 1.555507 0.060488
-0.098512 1.554149 0.018669
-0.114230 1.527009 0.053131
-0.117623 1.499223 0.052843
-0.097786 1.525760 0.023803
-0.099337 1.497712 0.025624
-0.080790 1.580898 -0.008872
-0.077872 1.554143 -0.000832
-0.051984 1.549430 -0.012133
-0.077707 1.523877 0.003769
-0.079095 1.495804 0.005827
-0.052741 1.521263 -0.009157
-0.054638 1.493267 -0.007839
-0.122454 1.471769 0.045319
-0.129979 1.444614 0.038448
-0.102548 1.469912 0.025031
-0.106602 1.442237 0.023211
-0.144402 1.389528 0.027364
-0.137093 1.417397 0.032176
-0.111140 1.414636 0.020687
-0.116425 1.387145 0.017075
-0.080530 1.467739 0.007818
-0.082316 1.439726 0.009296
-0.055588 1.465129 -0.005142
-0.056318 1.436958 -0.002127
-0.084765 1.411811 0.009812
-0.088541 1.384096 0.008396
-0.053226 1.408388 -0.001144
-0.058014 1.380728 0.000166
-0.081429 1.574762 0.236875
-0.063406 1.572937 0.262498
-0.075887 1.546607 0.234923
-0.071689 1.568763 0.251357
-0.077592 1.560839 0.237557
-0.070239 1.559713 0.249431
-0.060600 1.558358 0.259710
-0.068464 1.545474 0.246748
-0.059106 1.544147 0.257223
-0.038559 1.583491 0.281230
-0.030619 1.582510 0.283700
-0.035548 1.570130 0.277787
-0.020920 1.581330 0.285927
-0.011043 1.580143 0.287558
-0.017108 1.565780 0.282169
-0.032770 1.540725 0.272858
-0.023126 1.539529 0.276094
-0.000516 1.578892 0.288696
0.002418 1.563836 0.285347
-0.018001 1.552956 0.279194
-0.015850 1.538637 0.278057
-0.002977 1.537076 0.280785
0.001468 1.550604 0.282929
0.003119 1.536343 0.281827
-0.082516 1.547659 0.222544
-0.082216 1.533568 0.220890
-0.075237 1.532480 0.233025
-0.084020 1.519689 0.220704
-0.076194 1.518515 0.232249
-0.081626 1.490940 0.233149
-0.061988 1.488232 0.251697
-0.058552 1.530030 0.255392
-0.047138 1.542027 0.265940
-0.049385 1.528792 0.262910
-0.033327 1.526720 0.271802
-0.047809 1.514502 0.263457
-0.034515 1.512779 0.271186
-0.027315 1.511875 0.274078
-0.058577 1.510197 0.254255
-0.048822 1.500543 0.262719
-0.035956 1.498863 0.270747
-0.050142 1.486615 0.262196
-0.037620 1.484969 0.270464
-0.030382 1.484053 0.273693
-0.025480 1.525741 0.274708
-0.016784 1.524670 0.277265
-0.004989 1.523237 0.279898
-0.018349 1.510767 0.276911
-0.006587 1.509336 0.279610
0.002047 1.522390 0.281131
0.000407 1.508494 0.280830
-0.028946 1.497979 0.273744
-0.020116 1.496884 0.276700
-0.008059 1.495416 0.279509
-0.022019 1.483014 0.276583
-0.009502 1.481491 0.279448
-0.001397 1.494614 0.280645
-0.003199 1.480735 0.280457
0.007090 1.577992 0.289315
0.022786 1.574328 0.289755
0.016004 1.534799 0.283777
0.013997 1.520958 0.282896
0.012295 1.507073 0.282458
0.010675 1.493175 0.282140
0.009006 1.479284 0.281751
-0.124097 1.467544 0.239921
-0.117681 1.439070 0.253223
-0.095809 1.464434 0.231829
-0.092945 1.451027 0.237867
-0.080740 1.432887 0.256736
-0.129300 1.439482 0.261053
-0.126290 1.424893 0.267471
-0.125508 1.412527 0.272843
-0.111640 1.422781 0.262978
-0.108732 1.408687 0.270431
-0.122330 1.396021 0.277310
-0.119048 1.381479 0.280224
-0.107518 1.394979 0.275497
-0.103662 1.436768 0.249106
-0.099567 1.428732 0.256134
-0.095945 1.421475 0.262373
-0.093193 1.414455 0.267330
-0.099065 1.407557 0.270657
-0.090783 1.435231 0.250764
-0.087949 1.420499 0.264346
-0.105179 1.379876 0.279679
-0.067124 1.400270 0.280835
-0.090731 1.406556 0.271998
-0.093912 1.378530 0.281178
-0.085813 1.377541 0.283230
-0.080702 1.405323 0.274850
-0.087777 1.391962 0.278327
-0.076679 1.376411 0.286159
-0.087968 1.463456 0.234685
-0.071073 1.489492 0.242791
-0.084532 1.477171 0.233733
-0.072982 1.475623 0.242678
-0.075637 1.461830 0.243086
-0.063531 1.474322 0.251520
-0.080571 1.448265 0.245084
-0.069652 1.446781 0.254470
-0.086748 1.439432 0.248422
-0.064329 1.462254 0.252950
-0.051939 1.472735 0.262005
-0.039719 1.471120 0.270483
-0.054600 1.458941 0.262417
-0.042474 1.457336 0.270961
-0.046087 1.443638 0.272038
-0.032460 1.431722 0.279051
-0.031399 1.470065 0.274253
-0.024236 1.469176 0.276686
-0.010857 1.467554 0.279516
-0.029405 1.455691 0.276354
-0.005068 1.466862 0.280317
-0.009617 1.453303 0.280093
-0.031083 1.441762 0.277735
-0.011396 1.439404 0.280615
-0.013533 1.424967 0.281629
-0.064756 1.431841 0.266614
-0.073279 1.418324 0.270460
-0.051769 1.428109 0.274347
-0.053983 1.416236 0.277936
-0.039475 1.414465 0.281540
-0.031295 1.413489 0.282560
-0.047699 1.400279 0.284710
-0.030642 1.399252 0.285548
-0.068642 1.389609 0.284388
-0.053047 1.387708 0.288119
-0.046718 1.386956 0.288822
-0.061779 1.374575 0.290590
-0.045575 1.372645 0.292525
-0.029776 1.384707 0.288675
-0.036599 1.371607 0.292204
-0.022651 1.398326 0.285362
0.007307 1.465398 0.281319
0.005689 1.451500 0.281004
0.004270 1.437572 0.280978
0.003097 1.423607 0.281310
-0.029374 1.370782 0.291472
-0.015655 1.411658 0.283022
-0.014252 1.397361 0.284770
0.002178 1.409604 0.282011
-0.014254 1.383221 0.286806
-0.014169 1.369069 0.288970
0.000853 1.382023 0.284683
-0.005672 1.368110 0.287631
0.001085 1.367348 0.286539
0.022381 1.562160 0.287470
0.038564 1.560266 0.287898
0.044392 1.573641 0.289643
0.056614 1.572267 0.287495
0.051521 1.558797 0.286140
0.021179 1.548250 0.285529
0.036062 1.546500 0.286297
0.023589 1.533898 0.284550
0.033813 1.532696 0.285063
0.049927 1.533014 0.283333
0.050785 1.544828 0.284397
0.070098 1.570811 0.282489
0.067421 1.557071 0.280633
0.082663 1.569492 0.276147
0.079920 1.555762 0.274194
0.065084 1.543280 0.279273
0.063112 1.529435 0.278443
0.077572 1.541972 0.272817
0.075633 1.528122 0.272036
0.022651 1.519931 0.283760
0.031810 1.518855 0.284188
0.021313 1.506005 0.283249
0.029976 1.504989 0.283558
0.019905 1.492085 0.282787
0.028145 1.491123 0.282933
0.018659 1.478150 0.282212
0.026221 1.477270 0.282173
0.046928 1.503053 0.281878
0.048422 1.516961 0.282408
0.061439 1.515545 0.278047
0.059907 1.501633 0.277858
0.074032 1.514221 0.271745
0.072642 1.500289 0.271762
0.044431 1.475198 0.280059
0.045566 1.489135 0.281142
0.058274 1.487737 0.277521
0.056424 1.473874 0.276867
0.071225 1.486361 0.271739
0.069595 1.472464 0.271406
0.095006 1.568206 0.269479
0.092172 1.554489 0.267396
0.098787 1.581807 0.271775
0.107182 1.566945 0.262571
0.104309 1.553234 0.260430
0.089750 1.540711 0.265911
0.087742 1.526871 0.265028
0.101795 1.539470 0.258811
0.099657 1.525649 0.257740
0.127524 1.550882 0.244957
0.122979 1.523282 0.242423
0.096401 1.497856 0.257080
0.084718 1.499043 0.264707
0.083377 1.485103 0.264794
0.081849 1.471192 0.264611
0.094982 1.483928 0.257055
0.093427 1.470020 0.256831
0.119114 1.495579 0.240878
0.115640 1.467818 0.239901
0.017522 1.464203 0.281561
0.024274 1.463421 0.281380
0.016244 1.450271 0.281008
0.022427 1.449557 0.280732
0.040007 1.461629 0.279646
0.038128 1.447769 0.278951
0.014592 1.436376 0.280716
0.020747 1.435668 0.280325
0.012405 1.422535 0.280797
0.019262 1.421750 0.280205
0.036396 1.433888 0.278469
0.034782 1.419989 0.278160
0.046593 1.460893 0.278282
0.045781 1.446913 0.277405
0.054519 1.460019 0.276135
0.052737 1.446145 0.275582
0.067849 1.458585 0.270905
0.066170 1.444696 0.270502
0.044450 1.432986 0.276889
0.042830 1.419088 0.276574
0.051078 1.432253 0.275206
0.049470 1.418353 0.274906
0.064586 1.430793 0.270236
0.063026 1.416886 0.270005
0.009474 1.408769 0.281398
0.018031 1.407794 0.280452
0.003539 1.395332 0.282921
0.017133 1.393788 0.281185
0.033361 1.406062 0.278132
0.016598 1.379728 0.282446
0.016340 1.365627 0.284109
0.031813 1.377234 0.279588
0.028892 1.364224 0.281529
0.040708 1.405241 0.276611
0.034879 1.391794 0.277998
0.047961 1.404439 0.274749
0.046692 1.390488 0.274942
0.061512 1.402972 0.269841
0.060162 1.389034 0.269916
0.045740 1.376490 0.275596
0.045034 1.362456 0.276608
0.059058 1.375059 0.270349
0.058161 1.361053 0.271082
0.090009 1.442251 0.255936
0.078512 1.443410 0.263834
0.076900 1.429511 0.263527
0.075324 1.415607 0.263274
0.088297 1.428367 0.255484
0.086631 1.414476 0.255099
0.112028 1.440078 0.238724
0.108447 1.412333 0.237592
0.073826 1.401691 0.263133
0.072534 1.387744 0.263291
0.085122 1.400561 0.254943
0.083934 1.386599 0.255253
0.071496 1.373759 0.263820
0.070627 1.359749 0.264595
0.083094 1.372584 0.256071
0.082405 1.358547 0.257107
0.105591 1.384480 0.237515
0.104005 1.356437 0.239285
-0.239300 1.371641 0.088623
-0.224612 1.370117 0.080407
-0.240939 1.347495 0.089755
-0.212302 1.368873 0.072068
-0.217991 1.341294 0.074455
-0.242689 1.315587 0.091848
-0.243241 1.287390 0.095122
-0.220224 1.313347 0.075284
-0.221581 1.285270 0.077387
-0.193962 1.367100 0.056089
-0.196563 1.339209 0.056383
-0.206095 1.340132 0.064599
-0.172233 1.364971 0.038454
-0.174742 1.337065 0.038881
-0.196302 1.316080 0.055651
-0.176800 1.309093 0.039965
-0.177511 1.297681 0.040592
-0.200111 1.283179 0.059377
-0.178384 1.281050 0.041739
-0.242309 1.258970 0.100556
-0.240853 1.229097 0.110569
-0.221869 1.257033 0.081047
-0.221934 1.228763 0.085030
-0.236131 1.201487 0.117701
-0.231193 1.170946 0.130645
-0.221734 1.200452 0.089399
-0.228216 1.200976 0.099596
-0.219680 1.177410 0.092342
-0.200968 1.255027 0.062207
-0.201722 1.226860 0.065188
-0.179658 1.252960 0.043963
-0.180684 1.224833 0.046548
-0.202434 1.198686 0.068230
-0.202814 1.170462 0.071755
-0.181417 1.196662 0.049559
-0.182269 1.168510 0.052398
-0.197231 1.167337 0.227088
-0.185280 1.164675 0.236791
-0.143397 1.361970 0.022717
-0.150984 1.334633 0.024199
-0.137470 1.333229 0.016723
-0.121590 1.359637 0.013638
-0.126187 1.332044 0.011028
-0.153891 1.306787 0.024048
-0.155028 1.291977 0.024553
-0.133692 1.304715 0.011725
-0.155875 1.278803 0.025240
-0.132284 1.276395 0.010314
-0.093999 1.356631 0.004533
-0.099721 1.329206 0.000286
-0.059786 1.352824 -0.003252
-0.071001 1.326032 -0.007178
-0.104016 1.301568 -0.001885
-0.106430 1.273649 -0.001320
-0.075720 1.298457 -0.009965
-0.078519 1.270595 -0.009960
-0.157347 1.250743 0.027176
-0.158716 1.222667 0.029261
-0.134070 1.248382 0.011793
-0.136169 1.220415 0.012817
-0.160031 1.194584 0.031426
-0.161456 1.166517 0.033431
-0.138521 1.192487 0.013472
-0.140523 1.164506 0.014638
-0.108526 1.245682 -0.000291
-0.111730 1.217881 -0.000874
-0.081593 1.242774 -0.010354
-0.086047 1.215160 -0.012756
-0.115432 1.190154 -0.002183
-0.118228 1.162292 -0.002173
-0.090562 1.187554 -0.015247
-0.093797 1.159758 -0.015877
-0.122186 1.368783 0.282849
-0.127862 1.354210 0.284970
-0.130833 1.340447 0.285598
-0.132650 1.326569 0.285422
-0.121609 1.353493 0.284476
-0.104233 1.350308 0.284974
-0.122604 1.339501 0.285068
-0.124054 1.325578 0.284997
-0.105853 1.337535 0.285767
-0.107558 1.323637 0.285876
-0.101817 1.365314 0.283081
-0.084526 1.351088 0.289202
-0.082963 1.363017 0.287551
-0.063919 1.361542 0.293198
-0.065769 1.346746 0.295256
-0.086495 1.335174 0.290469
-0.088110 1.321262 0.290784
-0.071756 1.333346 0.295394
-0.063123 1.332288 0.297734
-0.074230 1.319534 0.295676
-0.063717 1.318237 0.298910
-0.133839 1.312628 0.284807
-0.134578 1.298641 0.283878
-0.125782 1.311696 0.284522
-0.127696 1.297842 0.283777
-0.109154 1.309738 0.285508
-0.110698 1.295838 0.284888
-0.132355 1.284315 0.282720
-0.133467 1.270387 0.281138
-0.112358 1.281018 0.283939
-0.089704 1.307357 0.290603
-0.091304 1.293461 0.290137
-0.076143 1.305666 0.295567
-0.064862 1.304268 0.299283
-0.077673 1.291759 0.295190
-0.066521 1.290376 0.298908
-0.113625 1.268041 0.282681
-0.092908 1.279573 0.289277
-0.094481 1.265696 0.287785
-0.078789 1.277810 0.294523
-0.068609 1.276548 0.297910
-0.079413 1.263812 0.293515
-0.071064 1.262775 0.296376
-0.044527 1.357417 0.295640
-0.053131 1.331087 0.299405
-0.056549 1.317370 0.300345
-0.058978 1.303553 0.300595
-0.060637 1.289659 0.300308
-0.061769 1.275712 0.299653
-0.062605 1.261735 0.298792
-0.046721 1.344471 0.297809
-0.029098 1.356601 0.293912
-0.028998 1.342446 0.296096
-0.044784 1.330106 0.299792
-0.045200 1.316028 0.301227
-0.027623 1.328152 0.297850
-0.029152 1.321155 0.298946
-0.030515 1.314350 0.299844
-0.013653 1.353933 0.291192
-0.016670 1.341065 0.293713
0.001012 1.353218 0.288471
0.000875 1.339099 0.290311
-0.014198 1.326653 0.295044
-0.014559 1.312567 0.296557
0.000547 1.325008 0.291873
-0.046084 1.302020 0.301980
-0.047433 1.288082 0.302056
-0.035869 1.300842 0.301477
-0.029997 1.300175 0.300760
-0.038693 1.287066 0.302002
-0.031011 1.286186 0.301324
-0.049120 1.274194 0.301640
-0.050982 1.260332 0.300970
-0.040648 1.273201 0.301922
-0.032300 1.272239 0.301488
-0.042240 1.259300 0.301588
-0.033743 1.258315 0.301428
-0.015165 1.298517 0.297715
-0.016011 1.284504 0.298523
-0.000726 1.297285 0.294045
-0.003622 1.283132 0.295409
-0.017081 1.270523 0.299005
-0.009740 1.269706 0.297363
-0.015700 1.256274 0.298764
-0.002558 1.268912 0.295511
-0.003613 1.254929 0.296015
-0.134632 1.257782 0.279074
-0.155293 1.244922 0.273142
-0.138836 1.242947 0.275725
-0.132304 1.242168 0.276514
-0.162662 1.231809 0.267723
-0.150622 1.230336 0.270845
-0.142476 1.229351 0.272468
-0.147650 1.215945 0.268673
-0.131112 1.227988 0.274238
-0.120467 1.240760 0.277826
-0.123489 1.227072 0.275468
-0.128424 1.213617 0.272625
-0.114930 1.254143 0.280735
-0.111981 1.239738 0.279339
-0.097597 1.237969 0.283493
-0.095607 1.255489 0.286271
-0.079630 1.249773 0.292221
-0.073882 1.249056 0.294315
-0.078334 1.235546 0.291413
-0.111868 1.225666 0.277816
-0.103247 1.224606 0.280294
-0.112037 1.211622 0.276490
-0.105966 1.210872 0.278378
-0.095182 1.223601 0.283179
-0.095801 1.209602 0.282166
-0.080105 1.220861 0.289699
-0.162822 1.189766 0.258020
-0.164420 1.203988 0.260579
-0.148665 1.205395 0.266281
-0.154636 1.188748 0.260894
-0.129497 1.200637 0.270319
-0.146174 1.187706 0.263409
-0.159655 1.161326 0.252922
-0.160603 1.174357 0.255490
-0.144862 1.173513 0.261050
-0.137501 1.172606 0.263238
-0.142535 1.159182 0.259560
-0.131144 1.185867 0.267318
-0.127808 1.171411 0.266155
-0.127735 1.157343 0.264660
-0.110481 1.197369 0.275526
-0.111905 1.184713 0.273468
-0.096332 1.195595 0.281092
-0.096720 1.181573 0.279919
-0.118677 1.156211 0.268040
-0.113697 1.169655 0.271138
-0.097188 1.167559 0.278800
-0.112076 1.155381 0.270739
-0.095641 1.153284 0.278846
-0.063289 1.247743 0.297825
-0.063952 1.233748 0.296843
-0.065768 1.205809 0.295221
-0.081591 1.207803 0.288523
-0.083290 1.193936 0.287285
-0.066999 1.191872 0.294636
-0.085092 1.180083 0.285902
-0.068325 1.177944 0.294116
-0.090444 1.166691 0.282453
-0.083519 1.165798 0.286268
-0.084196 1.151805 0.285296
-0.052953 1.246487 0.300141
-0.055026 1.232656 0.299164
-0.043693 1.245385 0.301158
-0.035254 1.244400 0.301268
-0.045044 1.231460 0.300656
-0.036819 1.230494 0.301030
-0.064748 1.219768 0.295954
-0.057131 1.218831 0.298140
-0.059143 1.204992 0.297252
-0.046342 1.217530 0.300117
-0.038441 1.216597 0.300708
-0.047715 1.203607 0.299630
-0.040080 1.202701 0.300363
-0.017832 1.242419 0.299189
-0.019899 1.228557 0.299598
-0.004688 1.240950 0.296490
-0.005688 1.226959 0.297074
-0.022261 1.211509 0.299923
-0.023642 1.200796 0.299972
-0.006678 1.212967 0.297672
-0.007832 1.198999 0.298033
-0.060990 1.191128 0.296603
-0.062753 1.177251 0.296077
-0.049284 1.189704 0.299280
-0.041653 1.188797 0.300113
-0.050975 1.175813 0.299016
-0.043172 1.174883 0.299943
-0.067092 1.163700 0.294422
-0.068669 1.149814 0.293366
-0.052556 1.161911 0.298674
-0.044734 1.160977 0.299709
-0.053878 1.147983 0.298152
-0.046401 1.147086 0.299322
-0.025360 1.186904 0.299895
-0.027049 1.173011 0.299746
-0.009218 1.185067 0.298055
-0.010775 1.171159 0.297829
-0.028732 1.159116 0.299588
