ply
format ascii 1.0
comment VCGLIB generated
element vertex 1718
property float x
property float y
property float z
element face 0
property list uchar int vertex_indices
end_header
-0.019286 1.158322 0.384121
-0.017245 1.147636 0.380298
-0.012976 1.133507 0.379859
-0.016018 1.135874 0.372080
-0.080743 0.749789 -0.020994
-0.026487 1.172858 0.379502
-0.027011 1.161047 0.375949
-0.035494 1.175879 0.370521
-0.036322 1.163922 0.367543
-0.080151 0.761632 -0.017569
-0.026110 1.149926 0.369698
-0.024885 1.138286 0.360756
-0.035765 1.152634 0.361945
-0.034480 1.143724 0.355765
-0.010874 1.119424 0.383825
-0.149559 0.865778 0.282749
-0.010240 1.108618 0.376516
-0.011368 1.121226 0.377566
-0.015774 1.125434 0.363549
-0.099944 1.153790 0.052820
-0.013231 1.116600 0.360247
-0.009518 1.097383 0.372442
-0.009665 1.085163 0.368523
-0.500807 1.829490 -0.081052
-0.009339 1.100675 0.359066
-0.009054 1.088644 0.356137
-0.131602 0.687864 0.002727
-0.131751 0.693937 0.004202
-0.011480 1.103400 0.349857
-0.132702 0.706093 0.006811
-0.012034 1.092559 0.342893
-0.022448 1.128587 0.353679
-0.020583 1.116888 0.343322
-0.147901 0.860181 0.281543
-0.032219 1.131237 0.346145
-0.132052 0.699982 0.005590
-0.030229 1.122051 0.338387
-0.015198 1.105568 0.342907
-0.134314 0.692527 0.009643
-0.137302 0.684775 0.013237
-0.137631 0.691261 0.014723
-0.019053 1.107116 0.338166
-0.018880 1.095643 0.333292
-0.028941 1.109711 0.330853
-0.134461 0.698544 0.011106
-0.028573 1.098333 0.325610
-0.000466 1.056394 0.424139
-0.003599 1.043013 0.425399
-0.005010 1.030774 0.423523
-0.134896 0.704614 0.012429
-0.001916 1.044413 0.420156
-0.491802 1.817363 -0.062619
0.002919 1.059263 0.412198
-0.137902 0.697301 0.016125
-0.000122 1.047860 0.407674
-0.003288 1.032695 0.416432
-0.004667 1.020978 0.412706
-0.002204 1.036276 0.403608
-0.003637 1.024570 0.399855
0.000495 1.062582 0.396532
-0.002334 1.051698 0.394555
-0.138375 0.703379 0.017431
-0.007061 1.067660 0.384451
-0.008531 1.055392 0.382687
-0.003144 1.039757 0.391512
-0.002326 1.025693 0.386774
-0.134298 0.718372 0.009110
-0.135401 0.730556 0.011645
-0.007853 1.041958 0.374302
-0.004174 1.032243 0.372908
-0.006304 1.007032 0.416885
-0.005941 0.995651 0.411651
-0.004777 0.984012 0.403713
-0.005693 1.009194 0.409147
-0.005914 0.997260 0.405976
-0.005037 1.012857 0.396117
-0.006215 1.001103 0.392487
-0.140135 0.715688 0.019651
-0.005164 0.988928 0.389926
-0.138183 0.729189 0.016981
-0.141669 0.727954 0.021980
-0.002271 1.016274 0.383564
-0.106177 1.151182 0.063172
-0.003269 1.006822 0.381428
-0.154423 0.726576 0.029200
-0.149656 0.727008 0.026793
-0.152282 0.716007 0.028898
-0.162769 0.724354 0.038579
-0.158138 0.711227 0.037953
-0.001198 1.019705 0.371272
-0.095423 1.165652 0.057108
-0.001039 1.007698 0.368283
-0.141050 0.684025 0.018221
-0.003221 0.993841 0.376714
-0.141696 0.690136 0.019443
-0.145532 0.682978 0.022741
-0.146599 0.689168 0.023762
-0.000910 0.995696 0.365281
-0.009426 1.069166 0.379582
-0.011654 1.057609 0.375447
-0.148567 0.701517 0.025881
-0.005582 1.033706 0.368017
-0.004324 1.023600 0.358123
-0.001860 1.013365 0.353303
0.001000 0.999122 0.352852
-0.150406 0.682006 0.027073
0.002841 1.003510 0.339118
-0.150636 0.688397 0.027230
-0.150987 0.685179 0.027579
-0.154073 0.877420 0.289849
-0.154974 0.686964 0.033085
-0.010969 1.074135 0.365897
-0.012085 1.061241 0.362726
-0.153505 0.680860 0.031032
-0.155504 0.693052 0.034363
-0.155922 0.699119 0.035694
-0.009735 1.076796 0.352745
-0.010024 1.064874 0.349541
-0.011278 1.051186 0.358437
-0.008730 1.036890 0.357376
-0.009638 1.039124 0.349668
-0.009892 1.052872 0.346539
-0.009512 1.040824 0.343656
-0.011427 1.080690 0.339334
-0.010786 1.069978 0.335651
-0.010059 1.057171 0.331421
-0.009023 1.044518 0.330547
-0.143991 0.764694 0.028754
-0.145342 0.776555 0.032477
-0.140573 0.777634 0.027788
-0.009911 1.046375 0.324164
-0.135923 0.736643 0.012927
-0.136304 0.742704 0.014276
-0.136499 0.748729 0.015716
-0.136521 0.754722 0.017238
-0.018487 1.084276 0.328005
-0.017657 1.073121 0.321889
-0.028755 1.087582 0.318260
-0.026138 1.077965 0.315220
-0.138747 0.735284 0.018244
-0.016309 1.063649 0.317279
-0.012613 1.048982 0.315478
-0.139228 0.741363 0.019545
-0.007648 1.028574 0.341422
-0.091751 1.176198 0.062884
-0.002399 1.015527 0.340941
-0.142401 0.734081 0.023161
-0.002135 1.019853 0.326949
-0.100154 1.161751 0.066601
-0.007078 1.032174 0.328415
-0.143223 0.740224 0.024299
-0.008040 1.033960 0.315384
-0.002895 1.023193 0.314014
0.005017 1.005936 0.328092
0.005404 1.009650 0.314934
0.002545 1.014878 0.314762
-0.139621 0.747426 0.020889
-0.139869 0.753461 0.022303
-0.144015 0.746363 0.025451
-0.106997 1.172046 0.397288
-0.107003 1.178036 0.398818
-0.108169 1.160291 0.393660
-0.104682 1.179491 0.393260
-0.104372 1.173444 0.391876
-0.102602 1.180991 0.387586
-0.102157 1.174918 0.386268
-0.103141 1.163127 0.382730
-0.111763 1.148993 0.388869
-0.119058 1.136500 0.388974
-0.117547 1.136948 0.382730
-0.144725 0.753516 0.027089
-0.107411 1.151957 0.377614
-0.112193 1.140216 0.372082
-0.097751 1.177873 0.375039
-0.097260 1.165803 0.372209
-0.094327 1.181013 0.363339
-0.096044 1.187325 0.364047
-0.090773 1.168364 0.361979
-0.098677 1.154094 0.368464
-0.101547 1.142658 0.364020
-0.089612 1.158218 0.361012
-0.090334 1.141729 0.355785
-0.120969 1.133172 0.387112
-0.136502 0.766695 0.020312
-0.122174 1.127005 0.377740
-0.127591 1.113912 0.378886
-0.125318 1.115224 0.374566
-0.137076 0.778780 0.023101
-0.115845 1.129596 0.367434
-0.118763 1.118170 0.362968
-0.127960 1.108239 0.377036
-0.128794 1.102408 0.375104
-0.125568 1.109681 0.371512
-0.126740 1.103913 0.369417
-0.130027 1.092594 0.361687
-0.122130 1.106829 0.358286
-0.095722 1.173161 0.074322
-0.125149 1.096510 0.352066
-0.104223 1.131187 0.359670
-0.109549 1.130705 0.362359
-0.157085 0.739055 0.030988
-0.147386 0.739664 0.027044
-0.107679 1.119551 0.356047
-0.090640 1.132581 0.352241
-0.152692 0.879051 0.283840
-0.091360 1.120605 0.349305
-0.157920 0.751190 0.033651
-0.108490 1.109262 0.351074
-0.114170 1.097135 0.345698
-0.027600 1.198032 0.019313
-0.036866 1.190753 0.024047
-0.036736 1.196717 0.025643
-0.164066 0.730599 0.039447
-0.164798 0.736726 0.040629
-0.092050 1.109246 0.344191
-0.098341 1.097932 0.339954
-0.106882 1.097326 0.343675
-0.162525 0.750167 0.038113
-0.165275 0.742804 0.041932
-0.165495 0.748834 0.043360
-0.038735 1.178087 0.363342
-0.040844 1.166509 0.359265
-0.039169 1.154215 0.357004
-0.082884 1.146707 0.346292
-0.083267 1.160990 0.349746
-0.076380 1.161242 0.339136
-0.077897 1.168244 0.340126
-0.075985 1.149191 0.336261
-0.041611 1.180300 0.356076
-0.043047 1.168048 0.354247
-0.044536 1.182969 0.347213
-0.045887 1.171247 0.343499
-0.046448 1.185341 0.339205
-0.046840 1.173594 0.335402
-0.043007 1.156510 0.349625
-0.036956 1.208735 0.028602
-0.027077 1.212935 0.021024
-0.042200 1.145344 0.343555
-0.044891 1.159082 0.340911
-0.043679 1.146876 0.338428
-0.045629 1.162828 0.327845
-0.045228 1.154322 0.324900
-0.047016 1.187223 0.332677
-0.157580 0.760109 0.036114
-0.046832 1.175211 0.329700
-0.072542 1.164397 0.327486
-0.071682 1.152164 0.324982
-0.157129 0.769006 0.038630
-0.156968 0.774964 0.040239
-0.070737 1.153674 0.319486
-0.082866 1.134727 0.343236
-0.023191 1.235764 0.021339
-0.028830 1.228952 0.023758
-0.029836 1.235130 0.024808
-0.081824 1.122553 0.340671
-0.075939 1.137204 0.333217
-0.073902 1.124843 0.331131
-0.082478 1.110700 0.337291
-0.162371 0.756126 0.039719
-0.087092 1.097262 0.331814
-0.072416 1.112586 0.328779
-0.073769 1.100865 0.325064
-0.041953 1.133507 0.336293
-0.026765 1.222938 0.021935
-0.162034 0.762051 0.041414
-0.165391 0.754804 0.044941
-0.039377 1.123597 0.329122
-0.046017 1.139195 0.320658
-0.042247 1.126439 0.319640
-0.034335 1.112968 0.320374
-0.036371 1.117464 0.320450
-0.031288 1.100416 0.318772
-0.071629 1.140177 0.321942
-0.064894 1.124950 0.321605
-0.056381 1.129108 0.312854
-0.058708 1.129002 0.313655
-0.057797 1.131332 0.312675
-0.165060 0.760729 0.046633
-0.067535 1.144481 0.310894
-0.061419 1.114296 0.320714
-0.066913 1.113472 0.324637
-0.061959 1.102421 0.317390
-0.067590 1.101587 0.321374
-0.056180 1.117093 0.309886
-0.059085 1.104850 0.305217
-0.161682 0.767973 0.043116
-0.095255 1.189069 0.357753
-0.095953 1.191908 0.358111
-0.093360 1.182722 0.357131
-0.094753 1.189876 0.354814
-0.093465 1.188478 0.351391
-0.086143 1.171276 0.350858
-0.151241 0.872789 0.283003
-0.161459 0.773919 0.044755
-0.079681 1.173842 0.340617
-0.087386 1.188733 0.340356
-0.164670 0.766644 0.048352
-0.079729 1.189614 0.330314
-0.075709 1.176878 0.329179
-0.075834 1.192665 0.318840
-0.076479 1.197387 0.319708
-0.073568 1.180261 0.316862
-0.397894 1.031403 -0.343509
-0.072282 1.168040 0.314414
-0.164388 0.772579 0.050021
-0.070468 1.155721 0.312220
-0.109913 0.804039 -0.025684
-0.123430 0.803325 -0.020659
-0.136309 1.079873 0.365365
-0.134695 1.081462 0.359467
-0.138179 1.074238 0.362934
-0.139675 1.068532 0.360683
-0.136544 1.075822 0.357047
-0.138126 1.069836 0.354679
-0.130173 1.084394 0.348294
-0.033348 1.221923 0.026727
-0.037663 1.220972 0.030880
-0.133297 1.073007 0.343729
-0.140563 1.063049 0.357533
-0.491991 1.811428 -0.064306
-0.141653 1.057987 0.356939
-0.125089 0.813681 -0.020073
-0.128303 0.800459 -0.009655
-0.139305 1.064367 0.352656
-0.129455 0.806665 -0.008675
-0.130284 0.813437 -0.008298
-0.140392 1.058584 0.350601
-0.142035 1.046917 0.346748
-0.141319 1.052771 0.348623
-0.138737 1.060165 0.344723
-0.136278 1.061593 0.339232
-0.139898 1.054395 0.342633
-0.140834 1.048583 0.340651
-0.137713 1.055876 0.337011
-0.139184 1.048892 0.334446
-0.128802 0.828293 -0.017108
-0.120590 0.829367 -0.022414
-0.120449 1.085969 0.340941
-0.132317 0.840934 -0.015730
-0.101012 1.086460 0.335607
-0.106279 1.086060 0.337990
-0.104366 1.074706 0.332377
-0.121425 1.078047 0.336269
-0.105356 1.063241 0.327692
-0.119936 1.063716 0.328720
-0.106087 1.052843 0.324242
-0.120008 1.052124 0.324311
-0.148456 0.904098 0.285332
-0.034585 1.228896 0.028158
-0.132005 0.825112 -0.005302
-0.126530 1.063538 0.330568
-0.130392 1.052291 0.325649
-0.142936 1.035110 0.343249
-0.142546 1.041026 0.344969
-0.144001 1.023335 0.339673
-0.143356 1.029201 0.341515
-0.141481 1.042717 0.338808
-0.141872 1.036803 0.337088
-0.140556 1.043777 0.334898
-0.135166 0.837686 -0.003754
-0.141271 1.037653 0.333979
-0.142133 1.030863 0.335430
-0.142120 1.025383 0.332102
-0.141586 1.031722 0.332301
-0.140571 1.038451 0.331040
-0.141252 1.026602 0.327648
-0.145980 1.011732 0.335657
-0.149336 1.010634 0.340150
-0.141009 1.015504 0.324937
-0.106808 1.039746 0.320213
-0.120085 1.040529 0.319914
-0.107497 1.027954 0.316626
-0.120202 1.028916 0.315589
-0.118194 1.017309 0.309206
-0.129653 0.798420 -0.002217
-0.131260 0.801243 0.003298
-0.134376 1.039895 0.320710
-0.130658 0.804999 -0.002580
-0.134766 1.029691 0.315556
-0.131633 0.811171 -0.001515
-0.132616 0.809464 0.004684
-0.135216 1.018332 0.314407
-0.133301 0.793830 0.014635
-0.134918 0.806113 0.016924
-0.074848 1.089092 0.321480
-0.087657 1.087856 0.328208
-0.034222 1.234488 0.027883
-0.080032 1.076460 0.321685
-0.088063 1.078539 0.326287
-0.132741 0.823482 0.000579
-0.074854 1.077116 0.318412
-0.134889 0.834222 0.009441
-0.088228 1.069867 0.323803
-0.088891 1.064478 0.322012
-0.080342 1.070479 0.320182
-0.080714 1.064612 0.318293
-0.074973 1.071150 0.316823
-0.075251 1.065214 0.315157
-0.133430 0.821595 0.007359
-0.133934 0.827678 0.008649
-0.076699 1.053510 0.311396
-0.089765 1.052506 0.317359
-0.134214 0.819850 0.013654
-0.135194 0.818449 0.018773
-0.063238 1.090686 0.313710
-0.067666 1.089993 0.316972
-0.066397 1.078880 0.310628
-0.069666 1.078029 0.314231
-0.061061 1.093497 0.303400
-0.134534 0.825898 0.015034
-0.064071 1.080177 0.305624
-0.063119 1.082472 0.297358
-0.135187 0.832010 0.016253
-0.065967 1.067607 0.305002
-0.069298 1.066240 0.310437
-0.067021 1.072970 0.308934
-0.135668 0.823642 0.021013
-0.067614 1.054917 0.304758
-0.069882 1.072081 0.312595
-0.136284 0.830324 0.022398
-0.065471 1.056385 0.299183
-0.064782 1.070810 0.293494
-0.065534 1.058974 0.290068
-0.078495 1.041873 0.307468
-0.090524 1.040974 0.312866
-0.078279 1.029855 0.304507
-0.088677 1.029417 0.307981
-0.082001 1.018582 0.299654
-0.088700 1.017849 0.303479
-0.086016 1.013881 0.296330
-0.064394 1.042996 0.300895
-0.070541 1.042372 0.304232
-0.068139 1.031902 0.295149
-0.063727 1.046123 0.289752
-0.064708 1.034865 0.284335
-0.074581 1.020967 0.289872
-0.137077 0.846237 0.011738
-0.138593 0.859702 0.009840
-0.139359 0.862390 0.014667
-0.068856 1.023671 0.279278
-0.038828 1.227054 0.032301
-0.149240 0.898258 0.283423
-0.040130 1.233288 0.033208
-0.137350 0.844364 0.018391
-0.140175 0.852964 0.026136
-0.138211 0.842665 0.024538
-0.093886 1.029016 0.310357
-0.139301 0.866515 0.008595
-0.096203 1.017477 0.306180
-0.105797 1.016952 0.309809
-0.102616 1.013107 0.301672
-0.141354 0.870999 0.015815
-0.144595 0.867824 0.027603
-0.397037 1.029407 -0.336630
-0.396769 1.035328 -0.334911
-0.148027 0.881532 0.026399
-0.137605 0.784355 0.024248
-0.138392 0.791006 0.025535
-0.139708 0.803230 0.027968
-0.396292 1.041256 -0.333253
-0.395820 1.047180 -0.331581
-0.146360 0.788724 0.035054
-0.143213 0.802000 0.032958
-0.147659 0.801413 0.037614
-0.393988 1.027291 -0.329738
-0.393439 1.033335 -0.328504
-0.392928 1.039361 -0.327200
-0.392494 1.045349 -0.325748
-0.327799 1.204042 0.031144
-0.331361 1.207645 0.030184
-0.402423 1.057394 -0.343720
-0.402259 1.063252 -0.341758
-0.399126 1.055506 -0.337675
-0.398751 1.061444 -0.336033
-0.140115 0.809296 0.029305
-0.140506 0.815359 0.030651
-0.401887 1.069211 -0.340190
-0.401360 1.075245 -0.338913
-0.141925 0.827603 0.033034
-0.398005 1.067166 -0.334440
-0.396553 1.073214 -0.332647
-0.395149 1.053096 -0.329920
-0.394887 1.059439 -0.329685
-0.143748 0.808090 0.034233
-0.392846 1.058499 -0.326750
-0.144314 0.814169 0.035480
-0.148258 0.807048 0.038740
-0.146238 0.807475 0.036856
-0.148952 0.813167 0.039940
-0.393991 1.065652 -0.329108
-0.392935 1.071941 -0.328833
-0.389808 1.063162 -0.324336
-0.388135 1.070575 -0.324906
-0.391915 1.051409 -0.324571
-0.390948 1.057656 -0.324128
-0.396473 1.079699 -0.332879
-0.395455 1.085970 -0.332532
-0.152189 0.825105 0.043741
-0.391209 1.077751 -0.328226
-0.157414 0.787026 0.043090
-0.390609 1.084625 -0.328690
-0.386357 1.079477 -0.325108
-0.385654 1.083333 -0.325056
-0.158835 0.799569 0.045792
-0.386811 1.076995 -0.325140
-0.389404 1.090987 -0.328699
-0.164806 0.786387 0.053333
-0.162859 0.798137 0.050213
-0.384520 1.089661 -0.324929
-0.165422 0.796728 0.055655
-0.383291 1.096034 -0.324981
-0.164383 0.778567 0.051556
-0.431038 1.272310 -0.371444
-0.158002 0.811746 0.046627
-0.160765 0.823589 0.050677
-0.163211 0.804192 0.051577
-0.163429 0.810221 0.053005
-0.165567 0.802743 0.057119
-0.165557 0.808730 0.058656
-0.165899 0.820771 0.061556
-0.146668 0.852452 0.036887
-0.145404 0.846690 0.036080
-0.145354 0.905406 0.280149
-0.494758 1.819712 -0.070351
-0.202416 1.074044 0.443444
-0.199991 1.075479 0.437936
-0.144126 0.839995 0.035043
-0.154526 0.850150 0.046458
-0.150811 0.837006 0.042948
-0.145844 0.899510 0.278381
-0.150158 0.865089 0.038276
-0.192982 1.043904 0.412089
-0.191773 1.045569 0.405997
-0.152093 0.871442 0.038880
-0.155908 0.877474 0.041410
-0.192477 1.039713 0.404127
-0.192656 1.033759 0.402509
-0.185785 1.048224 0.395528
-0.188140 1.036692 0.391331
-0.192021 1.027651 0.401280
-0.189939 1.023162 0.394075
-0.187404 1.024577 0.388620
-0.153498 0.863826 0.043345
-0.157492 0.862687 0.048099
-0.337064 1.211560 0.029644
-0.318607 1.197355 0.027134
-0.323604 1.204728 0.026380
-0.155444 0.870182 0.043944
-0.150521 0.891847 0.281486
-0.162397 0.835873 0.052959
-0.164407 0.848230 0.055058
0.004997 1.322615 0.343899
0.018653 1.321962 0.344757
0.007820 1.330146 0.340981
-0.002410 1.295914 0.348824
0.007502 1.296078 0.346407
0.001259 1.309329 0.346520
-0.166495 0.826872 0.062803
-0.167925 0.837042 0.064982
0.015211 1.308621 0.346049
0.022628 1.308985 0.343391
0.013032 1.296009 0.345627
0.024360 1.296682 0.341157
-0.042093 1.189986 0.027720
-0.169270 0.845362 0.066068
-0.041775 1.195839 0.029669
0.094003 1.344532 0.340706
0.107193 1.343537 0.341770
0.107891 1.355433 0.344993
0.094439 1.356301 0.344425
-0.047728 1.189018 0.032177
-0.046862 1.194843 0.034125
-0.139634 0.133751 -0.057451
0.068460 1.346929 0.336993
0.074764 1.346430 0.337586
0.068733 1.358618 0.341022
0.077031 1.357978 0.341740
0.081357 1.345791 0.338612
0.081795 1.357561 0.342328
0.080775 1.291899 0.347556
0.086752 1.292472 0.344426
0.083478 1.296417 0.343705
0.079265 1.293886 0.340831
0.105354 1.331090 0.340704
0.111630 1.343254 0.341943
0.102371 1.318088 0.341802
0.093409 1.332688 0.337284
0.092236 1.320563 0.334959
0.099141 1.304966 0.343372
0.103401 1.305091 0.342141
0.100835 1.311597 0.342450
0.098444 1.296381 0.337292
0.088262 1.308295 0.335126
-0.045788 1.206616 0.037706
0.104798 1.297426 0.326603
-0.134612 0.148565 -0.065318
0.068959 1.333973 0.331478
0.081342 1.334228 0.334095
0.081335 1.322667 0.329563
0.067213 1.324160 0.326919
-0.055640 1.193022 0.043117
-0.127852 0.163053 -0.072352
0.076157 1.297045 0.330273
0.078229 1.303037 0.328313
-0.134954 0.176981 -0.071519
0.066135 1.299575 0.323214
0.067239 1.304695 0.322928
0.080051 1.310488 0.327449
0.066271 1.312410 0.323231
0.039060 1.347458 0.340579
0.051901 1.347372 0.338500
0.041147 1.360026 0.341176
0.050995 1.359109 0.342583
0.027769 1.349373 0.335922
0.031275 1.357028 0.331629
0.037793 1.361601 0.336244
0.013818 1.349779 0.333930
0.020300 1.358968 0.326326
-0.147383 0.174931 -0.065319
0.054316 1.359020 0.342280
-0.150990 0.886612 0.279518
0.034988 1.334883 0.340376
0.048400 1.335645 0.335206
0.034951 1.322658 0.338196
0.046948 1.323942 0.331444
-0.128610 0.151218 -0.075780
-0.129014 0.139318 -0.079039
0.034445 1.310877 0.335823
0.045740 1.312194 0.327799
0.033713 1.298350 0.333542
0.045232 1.300313 0.324489
0.022188 1.335114 0.341938
0.025037 1.342638 0.338963
0.010077 1.336632 0.338832
0.054119 1.335811 0.333563
0.054347 1.324363 0.328587
0.054231 1.312751 0.324260
0.053202 1.300695 0.321663
-0.481682 1.430885 0.100912
-0.315575 1.199027 0.022008
-0.320789 1.206105 0.021063
-0.331182 1.212561 0.024380
-0.333754 1.215347 0.023733
-0.327528 1.213764 0.019463
-0.331654 1.219446 0.018736
-0.487633 1.437336 0.099171
-0.328506 1.209805 0.025089
-0.325681 1.211415 0.019837
-0.476054 1.423986 0.098426
-0.494653 1.813794 -0.072149
-0.345602 1.225368 0.027194
-0.349488 1.224760 0.032140
-0.346903 1.228071 0.027198
-0.477363 1.426007 0.101947
-0.359272 1.244882 0.032120
-0.355042 1.236697 0.032260
-0.351998 1.238405 0.027150
-0.356727 1.245699 0.025838
-0.055602 1.203967 0.048863
0.002979 1.268026 0.355559
0.008866 1.268081 0.354276
0.005010 1.274540 0.353892
-0.008704 1.281309 0.356189
-0.000679 1.281861 0.352758
-0.005234 1.290394 0.352535
-0.473379 1.421892 0.103495
-0.011926 1.268168 0.358068
-0.002965 1.258276 0.345836
-0.046110 1.218654 0.040616
-0.478938 1.428368 0.106156
0.016558 1.270415 0.344625
0.011048 1.284138 0.345394
-0.048219 1.231036 0.042698
0.025545 1.284480 0.338661
0.026956 1.272362 0.335834
0.008709 1.263457 0.323364
0.026327 1.260713 0.331729
0.025069 1.236466 0.326168
0.025601 1.246406 0.328871
0.021770 1.237286 0.324588
0.082618 1.281402 0.339408
-0.352250 1.230719 0.032207
0.067499 1.281295 0.342111
0.071998 1.288786 0.335685
0.070783 1.272007 0.330749
0.062050 1.283599 0.328432
0.056319 1.271708 0.332698
-0.121530 0.265585 -0.072684
-0.134015 0.265885 -0.071424
-0.130149 0.279450 -0.072148
-0.117355 0.278126 -0.072379
-0.348662 1.231935 0.027257
0.059055 1.262993 0.322244
0.088595 1.289496 0.330325
0.094171 1.291285 0.319416
0.082847 1.285019 0.326141
0.077006 1.279765 0.321709
-0.055017 1.215859 0.052117
-0.114631 0.239989 -0.074302
-0.120510 0.256055 -0.072321
0.072937 1.274913 0.318318
0.090923 1.287280 0.316675
0.082263 1.275258 0.309877
0.065115 1.264481 0.311439
0.076711 1.266010 0.303720
-0.146986 0.893737 0.276301
0.070105 1.255028 0.297531
0.029960 1.285266 0.335075
0.035350 1.286416 0.330024
0.037369 1.274057 0.327928
0.046532 1.274351 0.325193
0.049684 1.286735 0.322174
-0.054126 1.226955 0.052818
0.037988 1.247099 0.332271
0.047612 1.248170 0.326717
0.042171 1.262798 0.329734
0.052435 1.259236 0.332097
0.054762 1.250605 0.316804
-0.144718 0.279641 -0.072646
0.017042 1.251723 0.319860
0.003716 1.253329 0.316671
-0.033404 1.247781 0.026159
0.061146 1.253187 0.306526
0.041454 1.235144 0.321293
0.026666 1.225885 0.318584
0.036604 1.226295 0.315300
0.050738 1.239388 0.311808
0.045980 1.230064 0.306907
0.029673 1.220159 0.310067
0.034911 1.215952 0.299073
0.016781 1.240039 0.315809
0.016636 1.228412 0.311539
0.006122 1.242260 0.309957
0.006108 1.230697 0.305436
0.016976 1.217020 0.306350
0.022757 1.216933 0.305587
0.017896 1.208897 0.299965
0.003644 1.217947 0.305554
-0.036125 1.257459 0.026152
0.002192 1.205687 0.303757
0.029122 1.207539 0.292233
-0.506530 1.451218 0.085828
0.057336 1.241929 0.301632
0.052276 1.230885 0.296145
0.065576 1.244159 0.292243
0.060885 1.233068 0.286926
0.047577 1.219818 0.290815
0.040348 1.208541 0.286623
0.057234 1.221502 0.283090
-0.045207 1.246223 0.033836
-0.038678 1.247205 0.029167
-0.042286 1.239567 0.033677
0.056918 1.211808 0.278373
-0.028648 1.368384 0.374435
-0.509620 1.458774 0.095234
-0.503131 1.452758 0.094882
-0.021828 1.369692 0.364060
-0.023316 1.381201 0.369048
-0.026426 1.354797 0.372131
-0.022985 1.342170 0.370719
-0.020675 1.357497 0.361549
-0.018248 1.345062 0.359648
-0.028990 1.379235 0.377031
-0.014267 1.384027 0.357411
-0.014895 1.372169 0.354045
-0.006478 1.386342 0.347806
-0.005541 1.374189 0.345191
-0.012131 1.347694 0.349241
-0.001675 1.361987 0.342205
-0.001898 1.356005 0.342464
-0.002119 1.348978 0.342858
-0.022925 1.328033 0.375257
-0.018250 1.317323 0.366861
-0.020258 1.327857 0.368497
-0.011695 1.319871 0.356665
-0.014348 1.327742 0.357277
-0.015674 1.332599 0.357820
-0.016258 1.304970 0.364753
-0.014985 1.292753 0.362299
-0.008482 1.307287 0.355142
-0.006420 1.294921 0.353067
-0.042986 1.325779 0.341640
-0.053261 1.323928 0.349985
-0.047366 1.331840 0.340877
-0.049099 1.258935 0.035033
-0.047019 1.310778 0.349982
-0.046250 1.298656 0.347287
-0.038913 1.313034 0.340531
-0.037689 1.301021 0.337366
-0.008436 1.324797 0.345334
-0.010446 1.335398 0.346986
-0.006256 1.336105 0.343717
0.003096 1.336627 0.340143
-0.019655 1.302329 0.329412
-0.007312 1.302662 0.325950
-0.015205 1.313627 0.324585
-0.028984 1.302968 0.328888
-0.031967 1.309753 0.329048
-0.026137 1.316386 0.319513
-0.067703 1.386544 0.358443
-0.075092 1.385914 0.362035
-0.061781 1.372881 0.357814
-0.052378 1.375460 0.349391
-0.055788 1.382320 0.349344
-0.059044 1.388696 0.349256
-0.059651 1.361071 0.356178
-0.065259 1.360179 0.360361
-0.059571 1.349079 0.353152
-0.051702 1.363356 0.346650
-0.052960 1.351617 0.342981
-0.505271 1.457189 0.100016
-0.057488 1.336708 0.351087
-0.498342 1.448380 0.096586
-0.040358 1.273047 0.028950
-0.031824 1.273638 0.025287
-0.079673 1.312540 0.304550
-0.070645 1.338575 0.301671
-0.073960 1.315247 0.293948
-0.147723 0.890500 0.275082
0.003391 1.375448 0.339096
0.005519 1.375886 0.337157
0.004977 1.382477 0.338557
0.004643 1.388029 0.339801
0.007713 1.363495 0.335146
-0.161012 0.066545 -0.043007
-0.042560 1.285441 0.030958
0.017458 1.365441 0.326480
-0.002748 1.305586 0.314797
-0.009455 1.318700 0.314609
-0.491766 1.804852 -0.066350
-0.004022 1.311420 0.300429
-0.499624 1.450452 0.100071
-0.026131 1.318684 0.291478
-0.015249 1.311575 0.295473
-0.154469 0.069096 -0.053211
-0.015042 1.315480 0.282205
-0.020350 1.324369 0.281675
-0.148246 0.887986 0.274163
-0.014745 1.320740 0.269060
-0.028326 1.312896 0.293774
-0.031190 1.314743 0.287796
-0.068666 1.318033 0.283146
-0.062293 1.332593 0.275926
-0.063493 1.320843 0.272286
-0.058821 1.343914 0.280658
-0.027065 1.317750 0.276432
-0.019253 1.320061 0.266839
-0.039728 1.345255 0.272393
-0.030031 1.346050 0.267794
-0.036081 1.342297 0.263635
-0.052106 1.345425 0.270281
-0.054814 1.345332 0.274918
-0.055959 1.335183 0.265623
-0.056601 1.323328 0.262250
-0.048127 1.339366 0.256520
-0.050198 1.325905 0.251980
-0.013384 1.280473 0.360002
-0.015958 1.257006 0.352636
-0.049248 1.270940 0.038026
-0.024321 1.247100 0.345681
-0.176240 0.868245 0.081073
-0.019145 1.251207 0.335154
-0.047312 1.286880 0.343712
-0.046466 1.274743 0.341053
-0.035581 1.276474 0.332934
-0.041532 1.276003 0.335697
-0.039040 1.279498 0.331880
-0.040133 1.289311 0.333814
-0.047024 1.262872 0.337720
-0.049024 1.251272 0.333694
-0.035178 1.264421 0.330063
-0.043141 1.263668 0.334195
-0.035506 1.252506 0.326841
-0.043377 1.251996 0.330097
-0.007778 1.278796 0.319596
-0.027030 1.275643 0.334277
-0.023912 1.288710 0.332921
-0.006511 1.290534 0.323269
-0.021579 1.296646 0.331184
-0.051004 1.283465 0.040303
-0.027645 1.252231 0.326351
-0.027321 1.263945 0.330282
-0.006618 1.265481 0.316695
-0.007771 1.253443 0.313314
-0.035877 1.290299 0.329539
-0.043805 1.295309 0.319096
-0.044386 1.293562 0.319619
-0.041234 1.293305 0.319941
-0.047191 1.280646 0.320381
-0.043182 1.281695 0.315941
-0.037384 1.296361 0.307045
-0.040147 1.307172 0.316142
-0.030760 1.307089 0.314691
-0.043683 1.282345 0.313744
-0.053616 1.244025 0.043143
-0.044605 1.280100 0.314780
-0.031717 1.236028 0.338938
-0.039654 1.223302 0.339984
-0.035983 1.231239 0.335459
-0.030657 1.240487 0.328006
-0.054444 1.256158 0.045811
-0.048762 1.226274 0.331196
-0.046772 1.238567 0.330991
-0.048945 1.214629 0.326998
-0.048018 1.204328 0.321496
-0.057228 1.216891 0.320559
-0.058846 1.217777 0.319931
-0.058710 1.217284 0.319451
-0.055262 1.207396 0.308384
-0.143001 0.906855 0.274607
-0.032393 1.222645 0.295678
-0.024207 1.222015 0.296381
-0.030719 1.229277 0.294798
-0.033664 1.210472 0.293538
-0.020811 1.211255 0.296005
-0.041992 1.225375 0.287833
-0.037556 1.212558 0.286906
-0.057676 1.280646 0.322325
-0.063002 1.287756 0.298253
-0.049487 1.293674 0.301360
-0.060648 1.292103 0.295061
-0.082052 1.297471 0.312822
-0.082196 1.297253 0.313618
-0.082354 1.298464 0.313843
-0.074433 1.287596 0.300936
-0.079869 1.284837 0.311670
-0.077089 1.294364 0.301264
-0.078591 1.300358 0.302004
-0.083615 1.309498 0.316001
-0.071801 1.301380 0.291540
-0.068377 1.208427 0.307178
-0.002791 1.293618 0.311711
-0.007254 1.282483 0.306502
-0.004286 1.297378 0.296764
-0.009451 1.284157 0.301013
-0.163927 0.722692 0.044654
-0.163003 0.720174 0.051752
-0.156912 0.685242 0.039514
-0.157678 0.683688 0.045131
-0.056824 1.240845 0.054948
-0.014112 1.270342 0.305287
-0.011580 1.278316 0.303149
-0.015577 1.258076 0.303516
-0.057188 1.252890 0.057838
-0.032311 1.305392 0.299123
-0.024880 1.309765 0.304170
-0.157246 0.691488 0.040199
-0.019915 1.286472 0.294792
-0.015601 1.298728 0.290626
-0.026661 1.289388 0.282442
-0.157608 0.697545 0.041558
-0.024031 1.274452 0.295982
-0.025032 1.260880 0.295384
-0.028948 1.262187 0.289843
-0.158021 0.690374 0.044271
-0.158627 0.694133 0.047303
-0.030280 1.277279 0.283837
-0.032923 1.264442 0.284293
-0.159681 0.679916 0.057651
-0.160680 0.691872 0.062120
-0.019366 1.304320 0.277063
-0.021488 1.302737 0.275538
-0.020128 1.305309 0.273718
-0.015414 1.313997 0.267316
-0.006378 1.243591 0.307587
-0.005858 1.232285 0.302057
-0.015793 1.246414 0.299380
-0.053111 1.267883 0.049516
-0.016899 1.234322 0.296926
-0.007358 1.220002 0.300350
-0.010773 1.205998 0.299167
-0.018985 1.221754 0.296329
-0.159649 0.708014 0.050315
-0.026033 1.248839 0.292734
-0.025452 1.254898 0.293906
-0.028852 1.235916 0.293523
-0.029771 1.256499 0.289068
-0.030849 1.250198 0.288835
-0.031610 1.257140 0.287145
-0.037648 1.252050 0.283567
-0.034959 1.255058 0.284843
-0.039980 1.237910 0.288557
-0.158484 0.704840 0.064636
-0.038441 1.216034 0.274823
-0.045108 1.302638 0.293039
-0.053775 1.273997 0.050729
-0.054952 1.280208 0.051697
-0.156314 0.715784 0.067589
-0.054810 1.298875 0.285565
-0.037735 1.308681 0.282786
-0.041598 1.304732 0.279733
-0.049339 1.298664 0.274089
-0.034026 1.279348 0.277238
-0.041016 1.269626 0.271659
-0.154167 0.674413 0.073279
-0.066026 1.304550 0.281090
-0.153960 0.677496 0.074138
-0.152429 0.687785 0.074996
-0.060929 1.306188 0.269889
-0.035982 1.305015 0.277693
-0.026060 1.305583 0.273849
-0.035427 1.293727 0.272098
-0.047835 1.295101 0.269554
-0.037455 1.281187 0.271391
-0.054554 1.266376 0.055333
-0.056393 1.264717 0.061284
-0.046247 1.284312 0.262005
-0.150449 0.700301 0.075794
-0.047448 1.273278 0.255842
-0.056049 1.298897 0.257698
-0.056120 1.311260 0.259416
-0.148791 0.712660 0.077202
-0.050864 1.314054 0.248595
-0.055187 1.302893 0.243454
-0.054899 1.289695 0.254163
-0.491951 1.798451 -0.068165
-0.165477 0.728172 0.045738
-0.166445 0.735144 0.046511
-0.053631 1.276563 0.245409
-0.057501 1.291354 0.239278
-0.055811 1.279057 0.237024
-0.166609 0.734047 0.050406
-0.044083 1.241530 0.276558
-0.043843 1.254980 0.274389
-0.044016 1.242957 0.270020
-0.044856 1.257790 0.264671
-0.164835 0.726958 0.052423
-0.043856 1.245273 0.263323
-0.044677 1.251417 0.264461
-0.041629 1.229423 0.274375
-0.043152 1.235367 0.275473
-0.039905 1.222777 0.273966
-0.166101 0.733186 0.053348
-0.042791 1.237192 0.268974
-0.166988 0.741235 0.047782
-0.041387 1.230937 0.268115
-0.042690 1.238203 0.265389
-0.041785 1.232781 0.261264
-0.040097 1.224478 0.268006
-0.167268 0.747276 0.049180
-0.039323 1.219279 0.265733
-0.167015 0.739464 0.054026
-0.041238 1.226815 0.259982
-0.167330 0.744136 0.055501
-0.040680 1.220720 0.258718
-0.164002 0.731618 0.058484
-0.163841 0.743253 0.062724
-0.045246 1.259406 0.259048
-0.046129 1.260010 0.251823
-0.044673 1.252491 0.260676
-0.043982 1.247123 0.256826
-0.044812 1.253336 0.257724
-0.045445 1.255349 0.250748
-0.143151 0.900894 0.273003
-0.044463 1.249175 0.249688
-0.044297 1.250586 0.244680
-0.041222 1.222196 0.253618
-0.042804 1.236884 0.247418
-0.167214 0.753254 0.050739
-0.040169 1.224410 0.245619
-0.166894 0.759182 0.052425
-0.038771 1.239909 0.236010
-0.041118 1.246527 0.236463
-0.033746 1.226983 0.235357
-0.167498 0.751415 0.057275
-0.167147 0.757151 0.059633
-0.050159 1.267026 0.235381
-0.043489 1.252777 0.236810
-0.166446 0.765086 0.054173
-0.166036 0.770997 0.055902
-0.166673 0.763095 0.061234
0.123437 1.348597 0.320923
-0.166139 0.769048 0.062794
0.109907 1.375105 0.320558
0.109986 1.375387 0.319553
0.109703 1.378148 0.321228
0.119405 1.391505 0.306274
0.124231 1.391950 0.303812
0.120807 1.381759 0.298537
0.109836 1.352200 0.310748
0.106735 1.387682 0.322099
0.100112 1.354874 0.303124
0.109330 1.370810 0.290526
0.109743 1.358579 0.288282
-0.163308 0.755068 0.066260
0.090504 1.357604 0.295282
0.097214 1.360854 0.282586
0.109131 1.301404 0.315598
-0.162985 0.761003 0.067922
0.116433 1.314360 0.308907
-0.162606 0.766965 0.069477
0.106118 1.301651 0.299052
-0.055440 1.272418 0.056603
0.119358 1.326314 0.309662
0.109396 1.340430 0.307036
0.108822 1.328595 0.303575
0.108137 1.316706 0.300326
-0.155592 0.728307 0.068592
0.099122 1.342838 0.300452
0.098554 1.331005 0.296982
0.089280 1.345455 0.293054
0.090954 1.335199 0.286015
-0.154221 0.740529 0.070542
-0.148061 0.725755 0.076194
-0.145649 0.731297 0.077986
-0.143210 0.737268 0.079994
0.093965 1.347723 0.284190
0.108654 1.346778 0.284798
0.108118 1.334724 0.282105
0.099529 1.319922 0.290591
0.107104 1.307560 0.287476
0.100974 1.318582 0.287057
0.099901 1.320897 0.287082
0.102743 1.321477 0.284510
0.112075 1.322384 0.279584
0.116960 1.308558 0.278364
-0.056830 1.278670 0.057468
-0.153240 0.752560 0.073232
0.135289 1.391814 0.302242
0.135086 1.380158 0.298081
0.143730 1.380077 0.296763
-0.152426 0.764512 0.076236
0.135030 1.368575 0.293642
0.140944 1.368627 0.292362
0.136891 1.357048 0.288644
0.121072 1.369198 0.294031
0.120902 1.357559 0.289808
-0.143352 0.749965 0.080546
-0.142227 0.762067 0.082961
0.121097 1.346096 0.284893
0.135534 1.344825 0.283537
0.121214 1.334596 0.280126
0.131323 1.334512 0.278546
-0.153071 0.681234 0.075564
0.136518 1.334624 0.277190
0.148753 1.335008 0.273571
-0.148774 0.686248 0.079735
-0.151426 0.673125 0.081542
-0.151584 0.671179 0.088091
0.120552 1.322719 0.276834
0.128246 1.323117 0.274003
0.133528 1.308924 0.272277
-0.140930 0.908874 0.268271
0.140078 1.324100 0.268345
0.142706 1.312196 0.264536
-0.150077 0.679455 0.081283
0.155249 1.341353 0.250001
0.146260 1.327292 0.254566
0.142308 1.314314 0.257145
0.139316 1.316622 0.249565
-0.057309 1.270339 0.062239
0.151433 1.335608 0.246514
-0.149773 0.678719 0.083821
0.148217 1.330704 0.243559
0.142230 1.319859 0.237619
-0.141039 0.902389 0.267344
-0.147334 0.684246 0.086524
0.099323 1.290408 0.307601
-0.059115 1.277207 0.063043
0.095035 1.278313 0.302239
-0.150493 0.676961 0.090147
0.104618 1.292266 0.296561
0.103696 1.280464 0.293053
0.085031 1.266672 0.299848
0.090452 1.267202 0.296973
0.086838 1.257612 0.290824
-0.149007 0.682669 0.092393
0.104029 1.268882 0.288534
0.102931 1.257252 0.284451
-0.146902 0.690215 0.081123
-0.143639 0.697418 0.084691
0.107111 1.281538 0.288633
0.111204 1.282832 0.283314
0.110478 1.288674 0.284425
0.113116 1.296004 0.281815
0.119912 1.296950 0.277215
0.121851 1.284608 0.275082
0.112592 1.270593 0.280916
0.112902 1.258558 0.277999
0.123333 1.272352 0.272728
0.125522 1.260582 0.268527
0.109582 1.295115 0.285600
-0.141164 0.708302 0.088693
-0.144968 0.689783 0.089174
0.075071 1.244596 0.283773
-0.143018 0.695984 0.089631
0.091926 1.245492 0.278452
-0.147618 0.687381 0.094333
0.079838 1.237780 0.269521
0.105868 1.246266 0.277349
0.111428 1.246860 0.274226
0.107964 1.240867 0.270861
0.124826 1.248736 0.265128
0.111436 1.238094 0.258553
0.121782 1.236714 0.262788
-0.145685 0.694018 0.097053
0.096972 1.242513 0.265475
0.084957 1.241194 0.258786
0.102555 1.244421 0.254599
0.090140 1.244550 0.248071
0.071059 1.234933 0.278466
0.068411 1.223456 0.274130
-0.142862 0.705462 0.101474
0.066604 1.211821 0.270196
0.074928 1.226011 0.263914
0.071971 1.214593 0.259429
-0.135310 0.747327 0.088355
-0.133628 0.759114 0.091778
-0.138467 0.721834 0.088234
0.078725 1.229081 0.252393
0.075923 1.217634 0.247982
0.083814 1.231906 0.241492
0.081539 1.220359 0.237334
0.130565 1.297070 0.274821
0.129510 1.285002 0.272272
-0.135850 0.734658 0.087827
-0.136643 0.720051 0.094180
-0.131772 0.731108 0.099585
0.128373 1.272895 0.269879
0.137898 1.273387 0.266377
0.135701 1.261825 0.262257
-0.140824 0.717055 0.105518
0.146964 1.263485 0.254320
-0.138475 0.728588 0.109711
-0.144141 0.895093 0.270994
0.144455 1.304533 0.249090
0.151505 1.290367 0.249287
0.145704 1.292844 0.241630
0.138464 1.309460 0.234317
-0.129961 0.742743 0.103520
0.135863 1.295462 0.234226
0.149428 1.278782 0.245225
0.148617 1.266959 0.241770
0.145622 1.281249 0.237238
0.145470 1.269617 0.232982
0.134456 1.283224 0.232345
0.133663 1.271282 0.229301
0.133976 1.297463 0.227526
0.123654 1.275458 0.216440
0.127234 1.286447 0.220263
-0.130686 0.754857 0.106236
0.135794 1.249830 0.259236
0.125336 1.236753 0.261989
0.139490 1.237156 0.257945
-0.136759 0.740241 0.113600
0.145728 1.250802 0.253971
0.147380 1.256366 0.252718
-0.144899 0.892081 0.269823
0.123608 1.228179 0.247254
0.125433 1.225243 0.257262
0.118644 1.235482 0.246501
-0.136929 0.752250 0.116584
0.123486 1.231683 0.234923
0.113262 1.242108 0.245352
0.103007 1.248599 0.226372
0.115447 1.245976 0.231316
0.123108 1.232058 0.233670
0.123914 1.231449 0.233940
-0.152497 0.669458 0.094325
-0.152979 0.668161 0.098985
0.146277 1.258450 0.226912
0.133787 1.259786 0.224521
0.133484 1.248081 0.220550
-0.152094 0.675371 0.096051
0.119084 1.264344 0.211180
0.119714 1.246894 0.219833
0.112873 1.254179 0.205911
-0.151519 0.681251 0.097859
0.125064 1.235475 0.221265
-0.145604 0.889381 0.268759
0.107621 1.238471 0.213051
-0.152831 0.674429 0.099507
0.131157 1.235398 0.220408
-0.153300 0.681171 0.103315
-0.152715 0.663820 0.114236
0.094517 1.245648 0.236352
0.089919 1.234540 0.231079
0.087886 1.222947 0.227037
0.096319 1.237117 0.220808
0.094041 1.225571 0.216648
-0.153183 0.675885 0.117077
0.102297 1.227798 0.207268
0.106025 1.242857 0.198780
0.100909 1.233616 0.194648
-0.152598 0.691918 0.105738
-0.152483 0.702930 0.110055
-0.155169 0.688237 0.119189
-0.030114 1.349716 0.254374
-0.031742 1.360679 0.261828
-0.156082 0.700386 0.121816
-0.022683 1.352235 0.244634
-0.024157 1.360564 0.245985
-0.141870 0.895840 0.265228
-0.024835 1.347670 0.242327
-0.158832 0.661189 0.124644
-0.031968 1.362179 0.256584
-0.025487 1.364741 0.246351
-0.040871 1.340683 0.243937
-0.156910 0.672803 0.128631
-0.045212 1.328749 0.241029
-0.035405 1.341117 0.235064
-0.167027 0.658950 0.134053
-0.040029 1.331557 0.230174
-0.012755 1.354147 0.236056
-0.164323 0.670416 0.138417
-0.019535 1.341401 0.230355
-0.006672 1.344807 0.222567
-0.002761 1.356046 0.227510
-0.156510 0.684705 0.131889
-0.014847 1.333735 0.217829
-0.143070 0.890795 0.263304
-0.156092 0.690614 0.133623
-0.155232 0.696439 0.135567
-0.028016 1.333075 0.222597
-0.033229 1.332672 0.224983
-0.159290 0.683336 0.137227
-0.163094 0.676173 0.140540
-0.161920 0.681940 0.142636
-0.391229 1.002207 -0.332397
-0.392499 1.008633 -0.332171
-0.391025 1.007699 -0.329152
-0.158215 0.689121 0.139275
-0.388768 0.999787 -0.324326
-0.388059 1.005763 -0.322878
-0.393363 1.014785 -0.331054
-0.390901 1.013537 -0.327114
-0.390555 1.019483 -0.325496
-0.387122 1.011942 -0.321255
-0.386096 1.017602 -0.319691
-0.156652 0.694815 0.141558
-0.392669 1.026630 -0.327655
-0.160435 0.687648 0.144881
-0.391526 1.032403 -0.325574
-0.390087 1.025488 -0.324107
-0.389591 1.031507 -0.322775
-0.385910 1.023819 -0.319002
-0.385405 1.029843 -0.317684
-0.390644 1.038225 -0.323618
-0.389349 1.043785 -0.320815
-0.389149 1.037499 -0.321339
-0.384903 1.035864 -0.316361
-0.384329 1.041921 -0.315175
-0.383895 1.023081 -0.316771
-0.158390 0.693254 0.147403
-0.380850 1.029489 -0.313432
-0.380033 1.034531 -0.312564
-0.147048 0.861668 0.276144
-0.379166 1.040729 -0.311933
-0.374824 1.033009 -0.309548
-0.001207 1.347561 0.211846
0.003072 1.354963 0.216001
-0.001319 1.356472 0.225741
-0.006561 1.336595 0.206210
0.011487 1.360927 0.207661
0.009073 1.350509 0.201303
-0.151258 0.715239 0.113852
0.000715 1.339008 0.196359
-0.373593 1.039736 -0.309467
-0.351466 1.038709 -0.309946
-0.347284 1.031969 -0.309462
-0.148851 0.726761 0.118074
-0.363941 1.030124 -0.304422
-0.360959 1.038472 -0.307351
-0.352698 1.023260 -0.300114
-0.155405 0.712235 0.125206
0.013939 1.352250 0.192332
0.015685 1.363921 0.196333
-0.149596 0.875580 0.272860
-0.154587 0.718069 0.127131
-0.153537 0.723860 0.129167
0.008153 1.341390 0.186585
-0.077981 1.188026 0.059177
0.015647 1.364689 0.193635
-0.145368 0.738080 0.122811
0.008391 1.356683 0.176391
0.006951 1.367861 0.184067
0.008044 1.342718 0.172271
-0.143953 0.749789 0.126556
-0.152269 0.729609 0.131310
-0.150897 0.735509 0.133784
-0.385856 0.997445 -0.316612
0.001940 1.370303 0.176389
-0.001333 1.379796 0.177089
0.005881 1.378900 0.190637
-0.001418 1.382748 0.178426
-0.001717 1.382969 0.177698
-0.146811 0.748436 0.131856
-0.149737 0.741107 0.135590
-0.149102 0.746976 0.137427
-0.047791 1.317259 0.236727
-0.054382 1.305537 0.229813
-0.044226 1.320373 0.225093
-0.048708 1.315023 0.221355
-0.057048 1.294419 0.228390
-0.055990 1.282711 0.223639
-0.154357 0.710272 0.131931
-0.154006 0.702196 0.137689
-0.152736 0.707753 0.140509
-0.031771 1.323768 0.217705
-0.043159 1.316309 0.210304
-0.064591 1.190618 0.052301
-0.017084 1.322819 0.211437
-0.014838 1.329303 0.214282
-0.026594 1.311626 0.204149
-0.040333 1.313500 0.203314
-0.153894 0.716218 0.133526
-0.038038 1.309439 0.196938
-0.153534 0.722174 0.135109
-0.034613 1.244224 0.222859
-0.030956 1.230243 0.223353
-0.032780 1.233907 0.210775
-0.063005 1.202296 0.056129
-0.040850 1.256064 0.224732
-0.045830 1.263347 0.223964
-0.050573 1.269878 0.223129
-0.152259 0.719598 0.143951
-0.040357 1.259955 0.211420
-0.048264 1.273228 0.210893
-0.050664 1.277830 0.210803
-0.034898 1.246750 0.211181
-0.148940 0.868260 0.275904
-0.154895 0.699688 0.142665
-0.045966 1.274687 0.205325
-0.047853 1.279167 0.205474
-0.044566 1.278331 0.199082
-0.043328 1.264738 0.194624
-0.494011 1.808450 -0.073965
-0.153041 0.728176 0.136501
-0.038094 1.249416 0.202376
-0.038729 1.237552 0.199033
-0.044683 1.252687 0.192068
-0.047362 1.241263 0.188951
-0.152503 0.733748 0.139402
-0.153093 0.725978 0.144258
-0.009835 1.326734 0.201955
-0.004373 1.329320 0.191191
-0.015160 1.314265 0.195950
-0.153547 0.732052 0.145573
-0.011231 1.317310 0.184493
-0.021451 1.309981 0.191530
-0.151688 0.739583 0.141325
-0.032537 1.309811 0.185627
-0.015790 1.313374 0.181075
-0.026835 1.314003 0.175400
0.001932 1.329672 0.180299
-0.001017 1.329330 0.185509
0.005554 1.332940 0.171570
-0.151053 0.745452 0.143163
-0.005803 1.320071 0.173755
-0.153352 0.738003 0.147199
-0.004341 1.323598 0.161251
-0.152954 0.743917 0.148922
-0.154643 0.729102 0.156171
-0.010082 1.317669 0.170878
-0.021066 1.319467 0.165534
-0.016018 1.326062 0.157614
0.002228 1.194147 0.299145
0.011734 1.195061 0.294163
0.002256 1.182604 0.294548
0.009335 1.183536 0.289947
0.022994 1.196437 0.287223
-0.157162 0.740925 0.160246
-0.156202 0.734754 0.159176
0.022313 1.186134 0.282784
0.005102 1.171721 0.287097
-0.153661 0.704334 0.152732
0.021413 1.173204 0.278848
0.004309 1.161003 0.281380
0.020646 1.161409 0.275282
-0.152215 0.709960 0.155272
-0.151830 0.715906 0.156885
0.039314 1.198157 0.280709
0.055831 1.198759 0.272950
0.038620 1.183020 0.276446
0.053022 1.186645 0.270889
-0.077230 1.200895 0.063699
0.038434 1.173442 0.274853
0.053546 1.174570 0.268075
0.038363 1.161216 0.272680
0.054046 1.161407 0.264972
-0.062703 1.214215 0.059339
-0.165526 0.790270 0.055799
-0.166199 0.795722 0.059343
-0.165871 0.776954 0.057514
-0.166009 0.782969 0.058981
-0.165831 0.775054 0.064206
-0.165721 0.780891 0.066250
0.003442 1.149172 0.276326
0.019908 1.149592 0.271791
0.005077 1.137742 0.271029
0.019283 1.137705 0.268524
-0.166263 0.789005 0.060391
0.004754 1.126028 0.267095
0.018873 1.125715 0.265583
0.001248 1.113735 0.265794
0.018734 1.116588 0.263603
0.034979 1.149014 0.271037
0.042003 1.149009 0.269747
0.033736 1.136853 0.268844
0.043296 1.136789 0.267303
-0.166415 0.795022 0.061851
-0.165714 0.786798 0.068066
0.053239 1.150259 0.263261
0.052377 1.138142 0.260847
0.032655 1.124774 0.266344
0.042514 1.124959 0.263862
0.032300 1.113045 0.262473
0.040184 1.113422 0.259679
-0.165548 0.792723 0.069794
-0.162180 0.778728 0.073216
0.052021 1.126386 0.257069
0.051691 1.114741 0.252898
-0.162063 0.788463 0.076730
-0.062587 1.226170 0.062459
-0.166314 0.801445 0.061833
-0.384250 1.002807 -0.315156
-0.166200 0.807279 0.063891
-0.015610 1.050998 0.308924
-0.493147 1.801690 -0.075046
-0.024208 1.065775 0.303718
-0.166291 0.818879 0.068302
-0.019349 1.054040 0.298899
-0.022769 1.061225 0.298931
-0.021423 1.055567 0.293902
-0.005502 1.025397 0.306731
0.004277 1.011192 0.309704
0.004722 1.001094 0.299934
-0.001758 1.016436 0.298572
-0.164728 0.804788 0.072398
-0.001601 1.004171 0.290260
-0.014581 1.039939 0.302434
-0.012696 1.029907 0.296239
-0.016529 1.041530 0.297188
-0.020981 1.044224 0.288520
-0.022057 1.032146 0.286011
-0.148543 0.871003 0.269660
-0.011607 1.018266 0.287716
-0.011090 1.006960 0.282192
-0.022916 1.020172 0.283092
-0.022838 1.008654 0.278399
-0.164433 0.816709 0.075605
-0.014996 1.010617 0.260368
-0.000993 1.014024 0.255419
-0.008023 1.027711 0.255322
-0.161283 0.802277 0.080609
-0.160414 0.814255 0.083509
-0.151863 0.776342 0.079716
0.001021 1.101478 0.263760
0.018275 1.101624 0.260048
0.000586 1.089416 0.261074
0.017958 1.089583 0.257264
-0.146512 0.863706 0.268865
-0.151800 0.787929 0.084142
0.015166 1.077460 0.255235
0.020679 1.077389 0.254462
0.013922 1.065300 0.253043
0.021563 1.065246 0.251821
0.000165 1.079988 0.258648
-0.000347 1.065462 0.255120
0.032201 1.101440 0.258114
0.038302 1.101802 0.255710
0.031494 1.089541 0.254907
0.037501 1.089975 0.252260
-0.141366 0.774041 0.085878
0.051044 1.103194 0.248484
0.050215 1.091654 0.243986
0.030367 1.077437 0.252494
0.037348 1.078027 0.249122
0.029515 1.065468 0.249562
0.036678 1.066177 0.245734
0.049475 1.079974 0.240012
0.048753 1.068286 0.236065
-0.140984 0.785783 0.089699
-0.004576 1.040611 0.252933
0.008755 1.037877 0.251861
-0.000183 1.053216 0.252972
-0.151885 0.799444 0.088849
0.012322 1.052968 0.251526
0.022518 1.053087 0.249215
0.025588 1.041089 0.245657
-0.151436 0.811219 0.092544
0.004706 1.014609 0.252305
0.011302 1.015489 0.247978
0.008925 1.027405 0.251699
-0.145615 0.879299 0.259016
-0.076681 1.212512 0.065626
0.023359 1.028976 0.243487
0.021131 1.017420 0.239352
-0.140301 0.796582 0.096787
0.028702 1.053517 0.246555
0.035569 1.054410 0.242136
0.034703 1.042597 0.238655
0.044490 1.056511 0.233075
0.042345 1.044939 0.228981
0.027594 1.029867 0.239561
0.032256 1.031082 0.234416
0.030391 1.025365 0.231966
0.035385 1.026560 0.220599
-0.143516 0.808771 0.099703
-0.141933 0.801936 0.098028
0.028414 1.019831 0.229506
-0.045789 1.190777 0.319921
-0.045086 1.178668 0.317194
-0.045804 1.193036 0.311964
-0.076217 1.222034 0.068728
-0.046258 1.181259 0.308278
-0.054739 1.196093 0.302849
-0.055619 1.184109 0.299969
-0.045658 1.166800 0.313854
-0.050271 1.153472 0.307419
-0.047863 1.168924 0.306770
-0.166620 0.824747 0.070320
-0.057736 1.171527 0.299430
-0.062356 1.156839 0.301976
-0.011674 1.194798 0.299427
-0.003149 1.194084 0.300362
-0.013842 1.182191 0.298984
-0.003174 1.182112 0.297284
-0.022888 1.196751 0.294624
-0.023945 1.184681 0.292080
-0.014925 1.170110 0.296489
-0.004858 1.170454 0.293411
-0.014192 1.158907 0.290556
-0.008387 1.159143 0.288651
-0.025229 1.172503 0.289962
-0.026083 1.160533 0.287035
-0.033046 1.197222 0.285856
-0.030897 1.187702 0.282722
-0.167329 0.831125 0.070607
-0.032009 1.175879 0.279324
-0.033389 1.164032 0.276053
-0.166735 0.830134 0.073992
-0.169256 0.843774 0.071659
-0.044860 1.128326 0.313474
-0.088221 1.187508 0.067645
-0.033863 1.114711 0.314143
-0.028714 1.103716 0.306663
-0.031926 1.114595 0.307750
-0.041576 1.124885 0.305284
-0.168091 0.837257 0.071774
-0.028374 1.105812 0.299212
-0.039575 1.119328 0.298930
-0.038775 1.108158 0.292871
-0.053664 1.143002 0.308656
-0.166979 0.835794 0.076726
-0.167299 0.841810 0.080154
-0.165013 0.828795 0.078391
-0.046413 1.119034 0.301230
-0.048743 1.107497 0.297046
-0.012464 1.147677 0.284543
-0.026458 1.148794 0.283199
-0.027239 1.136858 0.280134
-0.013442 1.136486 0.280108
-0.159647 0.826182 0.086605
-0.029233 1.124336 0.279360
-0.014083 1.123643 0.276254
-0.024743 1.110538 0.281882
-0.014757 1.111965 0.275000
-0.031445 1.112939 0.279485
-0.033426 1.152193 0.272510
-0.034971 1.139190 0.268888
-0.159399 0.837860 0.090679
-0.037442 1.128379 0.266633
-0.038641 1.115605 0.266595
-0.041170 1.117426 0.260649
-0.169503 0.853037 0.084340
-0.070748 1.195490 0.307937
-0.071022 1.196899 0.308152
-0.068923 1.183169 0.305748
-0.067809 1.170981 0.303218
-0.170103 0.863174 0.094001
-0.159903 0.849172 0.096179
-0.160552 0.860416 0.101950
-0.150504 0.823227 0.095325
-0.087620 1.199371 0.070998
-0.036640 1.207671 0.270885
-0.034495 1.191813 0.268901
-0.149867 0.835093 0.098664
-0.034598 1.194918 0.257973
-0.142998 0.820602 0.103188
-0.142352 0.832442 0.106614
-0.034813 1.179896 0.265683
-0.034868 1.167929 0.262591
-0.149704 0.846729 0.102901
-0.032611 1.185527 0.253975
-0.030519 1.170894 0.251336
-0.150399 0.857464 0.107863
-0.023964 1.173443 0.241138
-0.027035 1.187541 0.243123
-0.022529 1.175400 0.227925
-0.022337 1.182361 0.229967
-0.023328 1.188599 0.232879
-0.144709 0.845129 0.107615
-0.000034 1.137398 0.273187
-0.140871 0.843623 0.112210
-0.141583 0.854836 0.118102
-0.001474 1.125694 0.269431
-0.093632 1.184743 0.078391
-0.132486 0.770905 0.095078
-0.132184 0.779999 0.097684
-0.093427 1.196682 0.081555
-0.035086 1.155994 0.259422
-0.036135 1.144215 0.255853
-0.030816 1.158974 0.248127
-0.032848 1.147380 0.244087
-0.131017 0.766896 0.109142
-0.038371 1.132660 0.251713
-0.042206 1.121593 0.247058
-0.130103 0.778701 0.112647
-0.035998 1.136293 0.239829
-0.025376 1.161733 0.237395
-0.030449 1.152425 0.233526
-0.145469 0.867294 0.256021
-0.025135 1.164200 0.228653
-0.087565 1.211337 0.074089
-0.037936 1.208225 0.256969
-0.145956 0.873375 0.257320
-0.136244 0.764096 0.119978
