ply
format ascii 1.0
comment VCGLIB generated
element vertex 1694
property float x
property float y
property float z
element face 0
property list uchar int vertex_indices
end_header
-0.112380 1.391420 -0.153133
-0.106628 1.392490 -0.146248
-0.363879 1.178182 0.166860
-0.366880 1.182520 0.168078
-0.043141 0.692131 0.127166
-0.040736 0.703539 0.135837
-0.045186 0.712757 0.135792
0.152770 1.150682 0.147879
-0.373209 1.191426 0.164205
-0.045919 0.706954 0.126441
-0.124608 1.456018 -0.158063
-0.125150 1.447366 -0.155725
0.039860 -0.210578 -0.032172
0.033277 -0.209979 -0.032083
0.035560 -0.204504 -0.030403
-0.365034 1.181377 0.163792
-0.366664 1.189461 0.158131
0.041055 -0.220133 -0.033104
0.033178 -0.218516 -0.029069
0.042164 -0.216438 -0.032673
-0.359198 1.179226 0.156633
-0.359545 1.187646 0.152936
-0.336810 1.118205 0.181102
-0.332166 1.115823 0.189301
-0.333790 1.118946 0.185496
-0.331565 1.111018 0.192067
-0.343690 1.099326 0.176680
-0.336729 1.118373 0.180925
-0.327470 1.100577 0.188376
-0.332618 1.102230 0.193622
-0.334122 1.093584 0.194390
-0.336186 1.084271 0.194493
-0.326826 1.091555 0.189562
-0.334174 1.093310 0.194406
-0.328847 1.082514 0.189633
-0.048863 0.711214 0.127636
-0.321049 1.089389 0.182311
-0.326712 1.080349 0.180992
-0.324607 1.081687 0.179386
-0.321067 1.097895 0.179118
-0.329523 1.110036 0.188565
-0.327740 1.108339 0.181831
-0.329630 1.111601 0.177541
-0.322187 1.107426 0.173750
-0.327361 1.087733 0.172654
-0.327380 1.096239 0.169458
-0.325505 1.105243 0.169162
-0.043901 0.701192 0.126109
-0.294723 1.072853 0.162626
-0.302929 1.072530 0.155963
-0.299940 1.068045 0.154778
-0.302082 1.071124 0.150145
-0.317778 1.087383 0.173947
-0.313555 1.096183 0.174524
-0.057863 0.647676 0.129048
-0.064666 0.647845 0.127172
-0.313552 1.086229 0.171383
-0.304513 1.094873 0.172271
-0.308741 1.084932 0.169087
-0.312663 1.104929 0.172722
-0.311239 1.113814 0.171736
-0.321212 1.115548 0.171363
-0.057384 0.656313 0.126615
-0.302881 1.102745 0.172670
-0.299576 1.113191 0.173494
-0.305959 1.113540 0.172565
-0.054201 0.647837 0.131160
-0.321023 1.094041 0.163717
-0.052746 0.656392 0.128742
-0.312220 1.084267 0.160853
-0.315186 1.092073 0.155942
-0.320978 1.103148 0.161747
-0.324295 1.112962 0.162996
-0.321154 1.111213 0.156565
-0.138254 1.420929 -0.114848
-0.145144 1.431316 -0.112467
-0.145596 1.422686 -0.109994
-0.063475 0.665347 0.123394
-0.057233 0.664864 0.123681
-0.138725 1.412295 -0.112401
-0.131503 1.410506 -0.117441
-0.130639 1.419244 -0.119284
-0.139638 1.403543 -0.110634
-0.132739 1.401671 -0.116166
-0.145954 1.414080 -0.107375
-0.146540 1.405415 -0.105105
-0.152031 1.433191 -0.106916
-0.144417 1.440017 -0.114521
-0.150099 1.442209 -0.107127
-0.152864 1.424461 -0.105026
-0.158249 1.435242 -0.100342
-0.156866 1.440240 -0.099950
-0.152518 1.443294 -0.103316
-0.159495 1.426405 -0.099082
-0.153357 1.415821 -0.102614
-0.153643 1.407234 -0.099886
-0.159799 1.417813 -0.096382
-0.159194 1.410941 -0.092840
-0.315347 1.100543 0.152528
-0.315710 1.109697 0.147361
-0.058579 0.673478 0.120447
-0.155353 1.444514 -0.099077
-0.051910 0.665089 0.126705
-0.298992 1.084128 0.167796
-0.301880 1.079052 0.164985
-0.297097 1.093222 0.170675
-0.051330 0.673843 0.124826
-0.199179 1.464249 -0.108808
-0.195950 1.474128 -0.106341
-0.289163 1.082951 0.166880
-0.284981 1.092631 0.169981
-0.162942 1.436945 -0.094705
-0.164796 1.428372 -0.092523
-0.162207 1.418846 -0.092793
-0.181798 1.410896 -0.094701
-0.178057 1.411197 -0.091949
-0.179103 1.415385 -0.091983
-0.174130 1.413275 -0.083379
-0.205210 1.429143 -0.104680
-0.193210 1.411585 -0.096075
-0.187646 1.411004 -0.096475
-0.190437 1.419068 -0.094343
-0.206757 1.420225 -0.103881
-0.201130 1.413190 -0.092105
-0.198389 1.422090 -0.090954
-0.192967 1.432371 -0.085774
-0.181517 1.431397 -0.082324
-0.187700 1.437719 -0.079368
-0.180808 1.420712 -0.091782
-0.185698 1.427416 -0.089735
-0.049182 0.682240 0.121983
-0.174858 1.421737 -0.085021
-0.047701 0.690789 0.119550
-0.057605 0.681873 0.117144
0.152209 1.159698 0.146701
-0.291674 1.103070 0.172662
-0.056847 0.690546 0.114975
-0.163356 1.448155 -0.086240
-0.160745 1.462256 -0.079537
-0.160557 1.449899 -0.077543
-0.306712 1.078068 0.157486
-0.168102 1.469238 -0.076650
-0.160790 1.467475 -0.081550
-0.167526 1.472173 -0.076805
-0.175342 1.471378 -0.071775
-0.168775 1.460551 -0.074514
-0.163664 1.459497 -0.077157
-0.168805 1.457628 -0.073477
-0.177183 1.462028 -0.071291
-0.177978 1.453308 -0.069341
-0.175404 1.453292 -0.068420
-0.050922 0.704025 0.119386
-0.308804 1.081554 0.152782
-0.309618 1.089851 0.148370
-0.173446 1.480031 -0.071906
-0.303387 1.079293 0.144982
-0.303527 1.087398 0.142829
-0.160867 1.446749 -0.091426
-0.053622 0.699857 0.116542
-0.166188 1.439915 -0.082976
-0.165510 1.430872 -0.081869
-0.160287 1.440951 -0.076185
-0.158942 1.431756 -0.075488
-0.164173 1.420348 -0.086987
-0.159449 1.411713 -0.082547
-0.161800 1.417192 -0.081950
-0.155574 1.422098 -0.076034
-0.157378 1.422130 -0.076590
-0.156407 1.424552 -0.075909
-0.154072 1.412868 -0.075433
-0.163779 1.421589 -0.081410
-0.049503 0.700088 0.119134
-0.308767 1.098610 0.144600
-0.179994 1.434183 -0.072972
-0.183087 1.442793 -0.072426
-0.178123 1.444675 -0.066763
-0.177028 1.435889 -0.064376
-0.177145 1.422546 -0.073362
-0.176343 1.415738 -0.071451
0.148387 1.147846 0.140404
-0.177213 1.427044 -0.062739
-0.178492 1.418449 -0.060430
-0.174460 1.437208 -0.057628
-0.167794 1.448213 -0.050872
-0.063193 0.707118 0.094398
-0.052148 0.704011 0.099939
-0.057897 0.699580 0.092229
-0.058339 0.707193 0.102039
0.021454 -0.209026 -0.032458
-0.309688 1.106857 0.141932
-0.302664 1.096505 0.139758
-0.302596 1.105034 0.136696
-0.041901 0.704079 0.099133
-0.044848 0.694652 0.094372
-0.327245 1.154707 0.182846
-0.335986 1.155510 0.182996
-0.329081 1.145748 0.181939
-0.339216 1.145417 0.178010
-0.335163 1.135615 0.177041
-0.341912 1.153581 0.178373
-0.052289 0.692385 0.089799
-0.036417 0.693323 0.094603
-0.038808 0.688627 0.092457
0.019597 -0.218396 -0.033761
-0.339784 1.142755 0.167316
0.151777 1.168683 0.145442
-0.345352 1.154281 0.170360
-0.033159 0.702570 0.097267
-0.341279 1.150202 0.157767
-0.042715 0.683332 0.085092
-0.155219 -0.341515 0.006819
-0.324719 1.134665 0.176955
-0.328247 1.127330 0.173942
-0.319163 1.123930 0.172535
-0.325945 1.124610 0.172904
-0.315140 1.133515 0.175043
0.151082 1.177730 0.144346
-0.318790 1.153243 0.179696
-0.321781 1.142564 0.178799
-0.002383 0.656010 0.146421
-0.006261 0.645953 0.143850
-0.312470 1.142707 0.176444
0.001422 0.643336 0.139871
0.005200 0.654317 0.141935
-0.334068 1.131973 0.165276
-0.326256 1.116905 0.163602
-0.329284 1.122989 0.164537
-0.327701 1.121689 0.159469
-0.329236 1.129859 0.152670
-0.335502 1.140519 0.155050
-0.333847 1.165170 0.185669
-0.338310 1.165369 0.184824
-0.335951 1.159822 0.184233
0.011324 0.652241 0.135217
0.008210 0.643299 0.134348
-0.324645 1.163901 0.183659
0.013870 0.650705 0.129485
0.013135 0.640522 0.125065
-0.270772 1.575292 -0.056258
-0.276283 1.577529 -0.048602
-0.277363 1.587360 -0.046419
0.040698 -0.307201 0.103453
0.048372 -0.310452 0.099694
-0.282408 1.580549 -0.042237
0.015399 0.649628 0.125365
0.014101 0.661481 0.136301
-0.349481 1.162473 0.161223
0.202199 1.195964 0.243662
0.198384 1.187658 0.240541
-0.343758 1.159403 0.156665
-0.302471 1.579442 -0.050304
-0.301299 1.578332 -0.054703
-0.301135 1.588024 -0.052649
0.017619 0.658786 0.125634
-0.290939 1.581049 -0.038852
-0.289513 1.585370 -0.038137
-0.300193 1.581305 -0.041287
-0.292041 1.590714 -0.037401
0.019577 0.667407 0.123941
0.020994 0.676630 0.124429
-0.332652 1.174557 0.146432
-0.324573 1.173579 0.145260
-0.325926 1.164729 0.144204
-0.321791 1.182819 0.146352
-0.333175 1.179236 0.146613
-0.333521 1.183973 0.146884
-0.280370 1.588651 -0.041933
-0.336467 1.148607 0.152647
-0.330145 1.138072 0.149398
-0.329766 1.146683 0.146812
-0.287816 1.590380 -0.037238
-0.279140 1.597485 -0.043218
-0.285983 1.599372 -0.037599
-0.293368 1.599904 -0.038110
-0.350770 1.169243 0.156606
0.025107 -0.208440 -0.028495
0.028614 -0.200292 -0.025817
-0.343098 1.167573 0.152257
0.026244 -0.217820 -0.023155
0.035473 -0.172420 -0.025020
0.042578 -0.182006 -0.027349
0.040976 -0.181787 -0.027010
0.033999 -0.180573 -0.024387
0.040475 -0.191069 -0.027400
0.031984 -0.189613 -0.024304
0.042073 -0.184404 -0.027278
-0.031729 0.682371 0.088905
-0.036841 0.677932 0.082179
-0.351631 1.177529 0.152124
-0.351457 1.186086 0.149224
-0.343138 1.176073 0.149031
-0.342152 1.184844 0.147373
0.037180 -0.200444 -0.029277
-0.025703 0.681141 0.084986
0.011743 -0.164484 -0.043349
0.002328 -0.159421 -0.048890
0.006843 -0.153482 -0.043749
-0.029492 0.674466 0.077971
0.015146 -0.182452 -0.039836
0.191620 1.176801 0.237255
-0.336051 1.157227 0.150118
-0.335349 1.165923 0.148026
-0.328808 1.155445 0.145112
-0.267895 1.587094 -0.003589
-0.275519 1.597287 -0.002333
-0.275749 1.588715 0.000481
0.159167 1.187153 0.148273
0.164835 1.187313 0.151146
-0.026995 0.692113 0.092930
0.017047 -0.160928 -0.025773
0.017319 -0.152103 -0.027463
-0.024648 0.699310 0.092372
-0.308686 1.122564 0.172985
-0.305006 1.132472 0.174942
-0.019842 0.690306 0.087787
-0.018383 0.699200 0.086854
-0.210860 1.544526 -0.086962
-0.204993 1.525360 -0.087740
-0.213858 1.526716 -0.085218
-0.197161 1.484278 -0.102817
-0.201583 1.484844 -0.102036
-0.200340 1.488954 -0.101540
-0.210906 1.486082 -0.100214
-0.203763 1.494673 -0.100283
-0.208383 1.495254 -0.099518
-0.207059 1.499571 -0.098969
-0.201557 1.514068 -0.095406
-0.196461 1.503210 -0.100532
-0.205324 1.504568 -0.098004
-0.189047 1.492961 -0.102110
-0.198826 1.494079 -0.100983
-0.186831 1.502054 -0.101884
-0.192072 1.483657 -0.103573
-0.019374 0.678236 0.075581
-0.021959 0.673104 0.073281
-0.217366 1.496581 -0.097176
-0.214684 1.505831 -0.094679
-0.219478 1.487516 -0.097242
-0.225481 1.498134 -0.093505
-0.221865 1.508511 -0.091478
-0.226923 1.489245 -0.092546
-0.012840 0.676267 0.069490
-0.014448 0.671496 0.068648
-0.208775 1.516719 -0.090684
-0.200858 1.516128 -0.095034
-0.198326 1.523427 -0.093627
-0.217679 1.517203 -0.087898
-0.215650 1.521969 -0.086368
-0.016273 0.683808 0.078556
-0.014477 0.688031 0.079907
-0.012398 0.697088 0.079924
-0.012045 0.686760 0.075288
-0.007486 0.693445 0.071306
-0.180762 1.490305 -0.070177
-0.187474 1.500739 -0.067526
-0.188555 1.491943 -0.066013
-0.009656 0.685613 0.071196
-0.193141 1.511446 -0.063273
-0.198158 1.522323 -0.058028
-0.199239 1.513528 -0.056516
-0.194028 1.502702 -0.061463
-0.186404 1.509531 -0.069053
-0.194883 1.493966 -0.059606
-0.199684 1.504901 -0.054029
-0.200148 1.496267 -0.051575
-0.322285 1.119461 0.149965
0.015430 -0.180717 -0.032150
0.167771 1.196956 0.154057
-0.221617 1.527463 -0.084940
-0.232557 1.537688 -0.084819
-0.230915 1.546630 -0.085471
-0.234100 1.528772 -0.084014
0.167142 1.192495 0.152972
-0.243515 1.559201 -0.075740
-0.236863 1.548753 -0.078483
-0.243202 1.556771 -0.074327
-0.239003 1.549547 -0.075833
-0.243215 1.550768 -0.072115
-0.240251 1.539353 -0.080502
-0.241913 1.530367 -0.081524
-0.246792 1.541319 -0.074424
-0.244024 1.547423 -0.072188
-0.250287 1.533224 -0.077100
0.017131 -0.169835 -0.024301
-0.230757 1.508944 -0.088655
-0.228732 1.514199 -0.087313
-0.238767 1.510525 -0.084821
-0.235384 1.520706 -0.084242
-0.233301 1.499765 -0.089381
-0.234196 1.491020 -0.087584
-0.240496 1.501560 -0.084302
-0.240536 1.493039 -0.081197
-0.227058 1.518426 -0.086159
-0.244195 1.521295 -0.080206
-0.245183 1.512524 -0.078552
-0.251631 1.523135 -0.073987
-0.247054 1.513454 -0.075211
-0.245333 1.503756 -0.074848
-0.242706 1.494686 -0.074835
-0.248840 1.515247 -0.068058
-0.243442 1.495958 -0.069556
-0.246463 1.508050 -0.062314
-0.243613 1.497277 -0.063861
-0.242732 1.500126 -0.052923
-0.305070 1.142582 0.134529
-0.295435 1.140958 0.134989
-0.298747 1.131655 0.132130
-0.303730 1.181745 0.148592
-0.298145 1.181658 0.150357
-0.300988 1.176241 0.147744
-0.202623 1.533346 -0.051937
-0.207813 1.544178 -0.046955
-0.209272 1.535284 -0.046022
0.167780 1.187569 0.153399
-0.305708 1.162655 0.141605
-0.312786 1.152048 0.138039
-0.318921 1.160769 0.141768
-0.316931 1.182377 0.146286
-0.311026 1.181960 0.146734
-0.312749 1.173164 0.144658
-0.215072 1.537445 -0.038808
-0.213945 1.546252 -0.040249
-0.216905 1.547531 -0.035799
-0.212616 1.555112 -0.041382
-0.219701 1.554198 -0.035116
-0.219880 1.556888 -0.036408
-0.217272 1.538726 -0.034052
-0.203986 1.524431 -0.051058
-0.197299 1.531779 -0.056739
-0.196089 1.531378 -0.058028
-0.204218 1.515661 -0.049110
-0.210257 1.526515 -0.044363
-0.210570 1.517920 -0.041677
-0.202269 1.506252 -0.049116
-0.201809 1.497260 -0.047875
-0.204356 1.507357 -0.045090
-0.204334 1.498852 -0.041890
-0.210240 1.509496 -0.038004
-0.209488 1.501182 -0.033689
-0.215786 1.528746 -0.036735
-0.216236 1.520117 -0.034257
-0.217411 1.529871 -0.032442
-0.217538 1.521013 -0.030842
-0.217145 1.511849 -0.030374
-0.216842 1.502935 -0.028852
-0.218598 1.503481 -0.027143
-0.204400 1.475594 -0.103181
-0.193468 1.480063 -0.104507
-0.206990 1.464822 -0.103389
-0.212856 1.477059 -0.100032
-0.213978 1.468253 -0.098583
-0.208878 1.457397 -0.103701
-0.210803 1.448381 -0.103480
-0.214958 1.458747 -0.097423
-0.216956 1.450449 -0.096808
-0.220334 1.478779 -0.095385
-0.220358 1.470261 -0.092256
-0.226882 1.480744 -0.089315
-0.226003 1.472463 -0.084805
-0.219642 1.451481 -0.093329
-0.220686 1.461664 -0.089592
-0.222322 1.452724 -0.088929
-0.225802 1.464128 -0.080791
-0.226996 1.455180 -0.079993
-0.211144 1.439781 -0.100836
-0.211317 1.431223 -0.097934
-0.217823 1.441711 -0.094968
-0.218151 1.433308 -0.091452
-0.212718 1.422345 -0.096913
-0.214749 1.413300 -0.096855
-0.207251 1.415632 -0.084588
-0.219905 1.424723 -0.089280
-0.220761 1.415406 -0.089965
-0.200930 1.434898 -0.082396
-0.194604 1.444423 -0.076429
-0.204122 1.445304 -0.074003
-0.201906 1.450222 -0.072226
-0.207727 1.435681 -0.076710
-0.204880 1.424400 -0.084920
-0.210227 1.426680 -0.077014
-0.211134 1.417931 -0.075234
-0.220633 1.442821 -0.091197
-0.223114 1.444004 -0.086975
-0.223025 1.435517 -0.083673
-0.228394 1.446302 -0.078965
-0.229253 1.437565 -0.077114
-0.227320 1.417367 -0.083913
-0.226369 1.420951 -0.083699
-0.224608 1.426590 -0.082929
-0.234596 1.421116 -0.079693
-0.080342 0.221590 -0.006039
-0.231854 1.428371 -0.077928
-0.211301 1.447103 -0.068899
-0.208827 1.455740 -0.068085
-0.213003 1.438145 -0.068339
-0.218765 1.448828 -0.064231
-0.216223 1.457881 -0.064245
-0.218505 1.439207 -0.060231
-0.211533 1.427734 -0.072907
-0.211767 1.418900 -0.071240
-0.213095 1.430127 -0.063050
-0.081059 0.212866 -0.004075
-0.210124 1.420909 -0.061832
-0.211660 1.426325 -0.061756
-0.081423 0.204062 -0.002327
-0.079825 0.233548 0.002583
-0.079921 0.241521 0.000499
-0.183543 1.472553 -0.068100
-0.181891 1.481558 -0.069056
-0.079489 0.224180 0.005609
-0.078722 0.234875 0.012277
-0.191693 1.474098 -0.064483
-0.190806 1.484188 -0.063822
-0.185909 1.463421 -0.068554
-0.189206 1.454135 -0.070939
0.029511 0.702840 0.121154
-0.078005 0.225823 0.013359
-0.199578 1.455007 -0.070216
-0.197150 1.464441 -0.066437
-0.079620 0.214922 0.005458
-0.303263 1.171803 0.145691
-0.199387 1.475761 -0.060167
-0.197399 1.480579 -0.058723
-0.079514 0.206010 0.006916
-0.206784 1.478397 -0.052570
-0.203919 1.466959 -0.064270
0.005376 0.574597 0.116521
0.003274 0.565665 0.118761
0.006035 0.583350 0.114665
0.006550 0.592556 0.114731
-0.211414 1.468611 -0.059625
-0.196173 1.485116 -0.058414
-0.201551 1.487388 -0.050556
0.008102 0.591547 0.110917
0.011061 0.611634 0.116096
-0.171273 1.439342 -0.047078
0.008585 0.601601 0.114678
-0.206582 1.422484 -0.053590
-0.209486 1.430149 -0.042181
-0.203363 1.423650 -0.047254
-0.202724 1.423986 -0.045543
-0.233553 1.482677 -0.083435
-0.231990 1.474687 -0.078412
0.010540 0.599877 0.107897
-0.238774 1.485143 -0.075769
-0.229121 1.456032 -0.077088
0.013363 0.607946 0.103882
0.013812 0.619550 0.114398
-0.236859 1.477533 -0.066825
-0.231282 1.466249 -0.073628
-0.142389 -0.345515 -0.005728
-0.150051 -0.346873 -0.014609
-0.232681 1.457371 -0.072603
-0.235249 1.469619 -0.064291
-0.236380 1.460732 -0.062362
0.015429 0.628930 0.115654
-0.233969 1.460715 -0.058486
-0.225686 1.459812 -0.057949
-0.231127 1.466046 -0.055842
-0.257159 1.460055 -0.070280
-0.260749 1.465146 -0.068807
0.016772 0.627499 0.109915
-0.253442 1.461589 -0.062147
-0.256074 1.464339 -0.060898
0.207208 1.193241 0.235081
-0.240340 1.488814 -0.062746
0.015366 0.615724 0.102600
0.017347 0.625350 0.100745
-0.235342 1.479996 -0.055479
-0.237131 1.484802 -0.055133
-0.239051 1.489731 -0.054724
0.008045 0.563732 0.110429
-0.232459 1.470450 -0.055726
-0.253906 1.462850 -0.056813
-0.236096 1.447964 -0.074662
-0.234108 1.453058 -0.073320
-0.240477 1.438669 -0.076603
-0.251451 1.439108 -0.078903
-0.246803 1.448936 -0.075191
0.008991 0.572492 0.108709
-0.241636 1.454473 -0.068643
0.009487 0.581133 0.106303
-0.250718 1.422277 -0.071450
-0.251689 1.430533 -0.076101
0.010345 0.589870 0.104449
-0.225926 1.450631 -0.059102
-0.219059 1.458500 -0.062435
-0.222553 1.441524 -0.057242
-0.225360 1.444593 -0.055934
-0.232724 1.451173 -0.052909
0.009621 0.562154 0.104138
-0.259371 1.440712 -0.074933
0.011008 0.570724 0.101761
-0.266091 1.442632 -0.069128
-0.258121 1.432529 -0.069854
-0.254992 1.424010 -0.065518
-0.256572 1.425612 -0.064760
-0.256334 1.424487 -0.063953
-0.264165 1.434626 -0.063014
0.010459 0.560683 0.098033
0.012008 0.569600 0.097237
-0.247403 1.455015 -0.043315
0.011035 0.559447 0.092851
0.013168 0.567847 0.090018
-0.217125 1.469298 -0.054599
-0.212108 1.478998 -0.047159
0.011861 0.579417 0.099715
-0.227935 1.470809 -0.052419
-0.219249 1.469815 -0.053425
-0.225704 1.473760 -0.049883
-0.220320 1.481326 -0.043793
-0.203906 1.488852 -0.045063
-0.207540 1.485355 -0.042089
0.013621 0.587625 0.095898
-0.205540 1.490024 -0.040571
-0.215131 1.486058 -0.037249
-0.208783 1.492350 -0.031650
-0.209386 1.497429 -0.032127
-0.210074 1.489609 -0.030337
0.013130 0.578406 0.095787
-0.230048 1.481170 -0.048314
-0.232342 1.485297 -0.047522
-0.228528 1.490769 -0.040126
-0.235611 1.491328 -0.046420
-0.238894 1.497819 -0.045386
-0.234177 1.497493 -0.037587
0.015173 0.576275 0.087262
0.017390 0.584529 0.083818
-0.225060 1.442347 -0.054608
0.012073 0.557088 0.082940
-0.230523 1.444596 -0.046879
-0.291559 1.181347 0.151532
-0.287060 1.180882 0.151228
-0.288481 1.177468 0.150185
-0.298144 1.171581 0.146684
-0.291521 1.171201 0.147570
-0.294220 1.166171 0.145047
-0.278586 1.179423 0.148108
-0.281296 1.170210 0.146674
-0.287602 1.159099 0.142569
0.013778 0.566383 0.083857
-0.297065 1.161236 0.142251
-0.299828 1.156362 0.139567
-0.302350 1.151338 0.137331
0.015648 0.575385 0.083553
-0.219111 1.548579 -0.032067
-0.219152 1.540057 -0.028963
-0.219907 1.522836 -0.023786
-0.219361 1.531491 -0.026115
-0.222828 1.505047 -0.021923
-0.220906 1.514063 -0.022149
-0.296059 1.150945 0.138032
-0.290912 1.150656 0.138745
-0.293077 1.146098 0.136914
-0.209244 1.492734 -0.030151
0.011743 0.598747 0.103422
-0.323731 1.127560 0.146289
-0.316899 1.117159 0.143822
-0.317250 1.125578 0.140119
-0.323691 1.136083 0.143185
-0.322779 1.144833 0.141415
-0.316704 1.134232 0.137787
-0.315152 1.143151 0.136997
-0.310078 1.115266 0.138170
0.015044 0.596292 0.093959
-0.258598 1.567439 -0.085896
-0.248588 1.567128 -0.083408
-0.255341 1.560399 -0.077000
-0.309947 1.123812 0.135205
-0.265556 1.560785 -0.077288
-0.267363 1.564006 -0.081429
-0.261006 1.567582 -0.086197
-0.264239 1.553283 -0.070593
0.016739 0.605744 0.091908
-0.259245 1.533223 -0.074223
-0.257221 1.538339 -0.072832
-0.268999 1.534348 -0.073060
-0.263738 1.545681 -0.070334
0.018984 0.592268 0.082420
-0.246265 1.566992 -0.083114
-0.246301 1.551216 -0.071349
-0.252604 1.551988 -0.070393
0.020472 0.601920 0.080281
0.018021 0.613626 0.090129
-0.255134 1.542813 -0.071100
-0.271663 1.554556 -0.066495
-0.273058 1.563833 -0.066852
-0.273322 1.572780 -0.068213
0.018574 0.622808 0.088029
-0.302479 1.113577 0.133708
-0.274148 1.535036 -0.072029
-0.277672 1.535819 -0.069964
-0.276659 1.543064 -0.071311
0.021133 0.610641 0.078281
-0.285702 1.545842 -0.069606
-0.285677 1.554360 -0.072734
0.021168 0.619633 0.076013
-0.274502 1.546388 -0.062918
-0.273645 1.536126 -0.061719
0.014055 0.565260 0.079055
0.013634 0.554115 0.070553
-0.269487 1.565401 -0.058628
-0.269451 1.574280 -0.060174
-0.268716 1.556337 -0.057579
-0.271194 1.566671 -0.053737
-0.270935 1.558227 -0.050175
-0.269965 1.537776 -0.058449
-0.266147 1.537976 -0.056111
-0.267434 1.542296 -0.056010
-0.259456 1.538830 -0.049804
-0.262741 1.547865 -0.049206
-0.267985 1.547283 -0.056505
-0.269425 1.552718 -0.045669
-0.257842 1.525891 -0.069210
0.014078 0.561025 0.068911
-0.265675 1.529235 -0.065746
-0.249216 1.516332 -0.063466
-0.253789 1.523401 -0.061689
0.015808 0.573747 0.076455
-0.248978 1.519040 -0.052604
-0.257155 1.527034 -0.060111
0.017573 0.582231 0.073847
-0.260778 1.530957 -0.058416
-0.254666 1.529939 -0.049015
-0.245276 1.508929 -0.053946
0.073716 1.023068 0.167806
0.015016 0.570649 0.066780
-0.139797 -0.353058 0.001548
0.016260 0.580281 0.064822
-0.228709 1.566766 -0.036997
-0.220547 1.565225 -0.040595
-0.227749 1.575529 -0.038692
-0.301623 1.122312 0.131853
-0.228168 1.558397 -0.033001
-0.235639 1.568631 -0.031511
-0.234415 1.577464 -0.032803
-0.235955 1.560037 -0.028828
-0.227269 1.555158 -0.030334
-0.234925 1.555127 -0.025325
-0.257735 1.541106 -0.040066
0.019163 0.590755 0.071348
-0.268193 1.550435 -0.042814
-0.265152 1.547356 -0.036717
-0.262269 1.543477 -0.030583
0.020283 0.599386 0.069136
-0.242586 1.571053 -0.023596
-0.240761 1.575793 -0.025053
-0.238962 1.579233 -0.026819
-0.242805 1.561922 -0.023221
-0.249106 1.563654 -0.017385
0.017260 0.589030 0.063078
-0.243177 1.553993 -0.019547
-0.250593 1.555051 -0.015883
0.017840 0.597740 0.061007
-0.250580 1.551160 -0.014415
0.020837 0.608147 0.067273
-0.248280 1.520886 -0.043206
0.048215 -0.306120 0.097828
-0.252501 1.529229 -0.041878
-0.247911 1.522106 -0.033403
-0.244298 1.512010 -0.042744
0.040398 -0.300350 0.100416
-0.240492 1.501331 -0.044944
0.049895 -0.302326 0.095427
0.020935 0.617011 0.065688
-0.240137 1.505061 -0.034990
0.057316 -0.311788 0.097291
-0.243849 1.513369 -0.033989
0.017845 0.604840 0.058968
-0.245475 1.514983 -0.027566
-0.239627 1.504323 -0.031541
-0.244635 1.506691 -0.023115
-0.254467 1.532823 -0.030732
0.017727 0.615361 0.057242
0.047341 0.611526 0.051863
0.043953 0.611752 0.051548
0.045036 0.604132 0.050860
0.038884 0.601638 0.045768
0.040283 0.597646 0.045538
0.038162 0.610691 0.044687
-0.260998 1.540612 -0.027449
0.015531 0.639054 0.119571
-0.252058 1.525449 -0.024717
-0.259521 1.535686 -0.023213
-0.258139 1.527537 -0.017932
0.018736 0.647064 0.115445
-0.251402 1.517110 -0.020546
0.071279 1.003915 0.161337
-0.251970 1.508450 -0.018248
-0.258312 1.518980 -0.015031
-0.259519 1.510152 -0.013711
-0.308740 1.132639 0.133885
-0.292827 1.547656 -0.064420
-0.292383 1.556283 -0.066906
-0.299910 1.549769 -0.057907
-0.298849 1.558270 -0.060712
-0.302518 1.540284 -0.059994
-0.277391 1.568727 -0.047133
-0.277579 1.560166 -0.044253
-0.284590 1.570521 -0.042059
-0.284875 1.561935 -0.039328
-0.276561 1.553407 -0.040082
-0.284342 1.557137 -0.036678
-0.299718 1.558654 -0.059367
-0.297854 1.576002 -0.063558
-0.304359 1.560507 -0.053054
-0.308171 1.571961 -0.046062
-0.313619 1.562239 -0.049045
0.020558 0.654776 0.114044
-0.307997 1.542966 -0.052451
0.021929 0.664440 0.111882
-0.305752 1.551630 -0.052019
-0.312154 1.552608 -0.050203
-0.313868 1.557339 -0.049894
0.017106 0.637882 0.115055
-0.292866 1.572033 -0.038633
-0.292332 1.563661 -0.034649
-0.302571 1.577871 -0.039144
-0.301841 1.573361 -0.036278
-0.299292 1.565561 -0.028446
-0.291703 1.560467 -0.032438
-0.272865 1.546666 -0.031558
-0.271401 1.544764 -0.028468
0.018477 0.635997 0.107344
-0.283728 1.553724 -0.034409
-0.279136 1.545558 -0.027383
-0.258559 1.556643 -0.011983
-0.256883 1.565174 -0.012428
-0.258370 1.549609 -0.009059
-0.265791 1.558429 -0.006962
-0.264515 1.566758 -0.007981
-0.265639 1.553973 -0.005055
-0.290037 1.555751 -0.027972
-0.281366 1.546222 -0.025926
-0.287714 1.551864 -0.022745
-0.283463 1.548728 -0.014375
-0.294118 1.558761 -0.019203
0.019807 0.644581 0.105005
-0.290142 1.557308 -0.011265
0.018113 0.634107 0.098947
-0.268135 1.559238 -0.004326
-0.282253 1.551192 -0.004547
-0.285590 1.555113 -0.003039
-0.274824 1.551878 0.001306
-0.280569 1.558239 0.003970
-0.268582 1.541393 -0.022627
-0.276022 1.539416 -0.016544
0.056625 -0.302102 0.092563
-0.272020 1.535367 -0.008522
0.018509 0.642838 0.096890
0.194317 1.176299 0.235420
0.202472 1.182966 0.230523
0.020951 0.653206 0.102778
0.021529 0.661962 0.100899
-0.275388 1.540736 -0.007242
-0.278734 1.546035 -0.005962
-0.269070 1.541677 -0.000705
-0.273611 1.550348 0.000776
-0.321025 1.153804 0.140933
0.019027 0.651550 0.094802
-0.273677 1.482052 -0.061221
-0.270073 1.479215 -0.054299
0.019228 0.660217 0.092392
-0.271988 1.444767 -0.062062
-0.273463 1.446005 -0.057217
-0.277404 1.449798 -0.055291
0.017654 -0.178842 -0.023099
0.001195 -0.155571 -0.048809
0.021366 0.675655 0.120311
0.023321 0.684095 0.117586
0.022597 0.673167 0.109915
0.017207 -0.189629 -0.031185
0.019771 -0.199484 -0.031770
0.023744 0.681903 0.108170
0.026533 0.691828 0.112254
0.021432 -0.197220 -0.022419
0.071252 1.014632 0.167800
0.018348 -0.187887 -0.022002
0.018213 -0.216903 -0.027767
0.029238 0.698883 0.111653
-0.016653 -0.187443 -0.033506
-0.015929 -0.195240 -0.030515
-0.016886 -0.205018 -0.028371
-0.020203 -0.214106 -0.030307
0.025731 0.690048 0.104165
0.027671 0.698492 0.101450
0.021722 0.670805 0.099258
0.038916 -0.153750 -0.026362
0.030567 -0.152257 -0.023047
0.037444 -0.162647 -0.025447
0.029665 -0.161005 -0.021262
-0.429068 1.265365 0.237822
-0.430226 1.252197 0.240836
-0.426861 1.259087 0.237456
-0.435299 1.261016 0.242640
-0.413638 1.265030 0.228146
-0.414948 1.265252 0.228614
-0.413824 1.264657 0.227981
-0.405417 1.263504 0.224637
-0.406442 1.261584 0.223684
-0.397430 1.261917 0.220769
-0.399025 1.258890 0.219299
-0.389745 1.260251 0.216440
-0.391658 1.255646 0.215040
-0.388905 1.270572 0.221508
-0.386031 1.269736 0.218956
-0.393226 1.270879 0.224280
-0.506363 1.260509 0.253482
-0.498095 1.250420 0.252928
-0.496613 1.258796 0.249740
-0.511245 1.262331 0.259571
-0.499472 1.241611 0.254269
-0.512276 1.264285 0.259910
-0.505697 1.269195 0.251335
-0.512713 1.271037 0.256689
-0.512452 1.279616 0.253921
-0.503955 1.278163 0.250835
-0.493945 1.277107 0.250062
-0.501761 1.277940 0.250697
-0.496463 1.267947 0.248854
-0.539893 1.233545 0.243850
-0.538981 1.242296 0.242080
-0.220692 1.541893 -0.021534
-0.233504 1.552168 -0.021913
-0.230721 1.548968 -0.016191
-0.217447 1.543535 -0.013109
-0.225893 1.549903 -0.008681
-0.529544 1.229807 0.244627
-0.529743 1.232525 0.243294
-0.532865 1.224571 0.247694
-0.538857 1.225306 0.248602
-0.529716 1.241043 0.240168
-0.537994 1.251065 0.240425
0.022270 0.679567 0.097397
-0.247452 1.572897 -0.017410
-0.245338 1.581963 -0.017340
-0.239428 1.545785 -0.011722
-0.237448 1.545722 -0.011238
-0.230020 1.546408 -0.005386
0.060358 -0.324732 0.082256
0.067687 -0.341966 0.090480
0.063757 -0.336505 0.082053
0.019436 0.667437 0.090442
-0.249698 1.546773 -0.011347
-0.537611 1.259678 0.237844
-0.529948 1.249494 0.236647
-0.530632 1.257826 0.232435
-0.220358 1.532929 -0.020215
-0.221097 1.524210 -0.018238
-0.217914 1.534754 -0.011299
-0.220567 1.526345 -0.008707
-0.220252 1.527017 -0.008445
-0.222749 1.515700 -0.015700
-0.227017 1.507630 -0.012245
-0.226640 1.508341 -0.011895
-0.518956 1.240183 0.240545
-0.525374 1.240634 0.240045
-0.508945 1.236035 0.240923
-0.510619 1.238687 0.237212
-0.520719 1.247180 0.235072
-0.513336 1.245376 0.230301
0.020403 0.676693 0.088455
-0.523712 1.257195 0.226475
0.023290 0.688222 0.095248
-0.516105 1.254044 0.220973
-0.539825 1.267585 0.234044
0.024217 0.696897 0.093155
-0.542912 1.272761 0.224349
-0.531495 1.261590 0.229628
-0.533360 1.265622 0.225094
-0.535634 1.268491 0.220325
0.021718 0.686354 0.086486
-0.527735 1.264334 0.217270
0.022226 0.695704 0.084266
0.018291 0.631086 0.085811
-0.520517 1.261480 0.211704
0.017792 0.640273 0.085408
-0.504293 1.234973 0.248890
-0.496915 1.241282 0.253813
-0.496945 1.231510 0.244681
-0.490539 1.240272 0.251849
-0.490304 1.228253 0.240900
-0.482349 1.238738 0.248294
-0.254273 1.574790 -0.011757
-0.252219 1.583841 -0.011780
-0.261762 1.576508 -0.007128
-0.260067 1.585464 -0.007701
-0.264284 1.567335 -0.007820
-0.489616 1.249026 0.250095
-0.488399 1.257857 0.248791
0.018384 0.639365 0.081665
0.020885 0.628095 0.073743
0.020384 0.637297 0.073398
-0.269072 1.578273 -0.002224
-0.270775 1.569314 -0.001664
-0.276616 1.579976 0.002321
-0.277491 1.571235 0.004147
0.018062 0.649098 0.083718
-0.481879 1.247373 0.245844
-0.479097 1.256614 0.246935
-0.480110 1.227999 0.255933
-0.469305 1.229965 0.255328
-0.479637 1.230830 0.255138
-0.471845 1.234956 0.249339
-0.462324 1.228114 0.249922
-0.464356 1.233093 0.244764
-0.475620 1.236820 0.242498
-0.468796 1.235728 0.236554
-0.476153 1.239930 0.240476
-0.476080 1.245431 0.239388
-0.470210 1.255579 0.244327
0.018573 0.657869 0.081880
0.018822 0.647991 0.079170
-0.464480 1.253083 0.237125
-0.467043 1.243582 0.233676
0.024318 -0.151318 -0.021346
0.019528 0.656688 0.077085
-0.478787 1.276115 0.257647
-0.486303 1.276791 0.251617
-0.483590 1.267812 0.250719
-0.473950 1.266475 0.251646
-0.477281 1.260170 0.248570
0.023554 -0.160031 -0.019354
-0.471617 1.270610 0.253905
0.020673 0.646118 0.071697
0.021542 0.654807 0.069639
0.021074 0.636388 0.069692
0.021550 0.645024 0.067255
-0.465646 1.264971 0.248264
-0.464162 1.268361 0.249418
-0.462303 1.256433 0.239422
-0.458806 1.263083 0.242642
-0.456506 1.268406 0.244406
0.022349 0.653746 0.065312
-0.501549 1.233108 0.236591
-0.503987 1.236745 0.231272
-0.006877 0.670559 0.063860
-0.494076 1.231071 0.232056
0.197214 1.236124 0.255254
0.189582 1.235474 0.250023
0.192183 1.231759 0.248960
-0.496585 1.235005 0.226508
-0.505646 1.240493 0.227176
-0.498192 1.238239 0.222691
-0.507263 1.244397 0.223092
-0.005901 0.674405 0.064019
-0.509985 1.251127 0.216158
-0.002619 0.673334 0.060602
-0.500281 1.242546 0.217688
-0.502179 1.246858 0.212994
-0.004114 0.683385 0.063586
-0.504145 1.250044 0.208610
-0.483460 1.226254 0.233670
-0.486552 1.229593 0.227393
-0.489137 1.233276 0.221817
-0.476968 1.224273 0.227514
-0.479172 1.226493 0.223101
-0.482820 1.231087 0.214065
-0.490736 1.235995 0.218203
-0.002697 0.692269 0.062591
-0.493714 1.240587 0.211648
-0.494885 1.242777 0.208927
-0.498456 1.248314 0.199784
-0.487797 1.236337 0.205400
-0.491108 1.239306 0.207054
-0.489666 1.237966 0.201752
-0.129138 1.608756 0.144376
-0.137204 1.610199 0.150233
-0.138897 1.618391 0.142368
-0.131960 1.616528 0.136892
-0.492098 1.241404 0.196516
0.001742 0.679528 0.057095
-0.514094 1.258545 0.206710
0.003574 0.690231 0.056097
-0.506296 1.254018 0.203631
-0.154454 1.664232 0.134910
-0.149869 1.655759 0.140007
-0.151714 1.657440 0.141894
-0.143880 1.645503 0.137851
-0.144720 1.646080 0.140047
-0.145255 1.648700 0.138202
-0.148456 1.648380 0.150974
0.019500 0.666545 0.079788
-0.545226 1.274703 0.219860
-0.540840 1.272229 0.211620
0.020948 0.675101 0.077375
-0.158651 1.666707 0.144112
-0.158932 1.667224 0.143965
-0.547311 1.276711 0.215720
-0.551122 1.283091 0.207143
0.020446 0.665439 0.075323
-0.543431 1.280004 0.203352
-0.161112 1.669600 0.155809
-0.161552 1.670489 0.155943
-0.164476 1.677479 0.148586
-0.163994 1.676762 0.145639
-0.161221 1.669821 0.156732
0.021520 0.674233 0.073800
-0.155323 1.659127 0.153612
0.022479 0.663480 0.067541
-0.147879 1.651185 0.161142
-0.150488 1.655308 0.162142
0.023003 0.672247 0.065696
-0.154515 1.661590 0.163696
-0.157194 1.666089 0.164675
0.021930 0.683765 0.075249
-0.546690 1.289292 0.202332
-0.542735 1.288698 0.201251
0.021474 0.692756 0.074006
-0.142612 1.636326 0.138596
-0.143821 1.637804 0.144589
-0.142615 1.627439 0.140120
-0.144147 1.629207 0.147256
-0.145130 1.639285 0.150559
-0.145096 1.630391 0.152062
-0.144062 1.641420 0.160318
-0.144088 1.632544 0.161859
0.022146 0.682908 0.071593
-0.144167 1.620691 0.150391
-0.139981 1.621647 0.139391
-0.143387 1.613499 0.154336
0.020547 0.691410 0.065345
-0.145983 1.621706 0.154131
-0.146846 1.624000 0.163823
-0.145176 1.628685 0.163233
-0.148144 1.614818 0.163561
0.022504 0.681249 0.064479
0.023032 0.662436 0.063191
-0.149356 1.615973 0.168142
0.023129 0.670973 0.060173
-0.551487 1.290084 0.203947
-0.533146 1.269563 0.206517
0.005322 0.680408 0.054201
0.011431 0.688609 0.052030
0.009720 0.679962 0.051402
-0.525327 1.269039 0.202754
-0.534323 1.278710 0.201201
-0.533336 1.287480 0.199546
0.021420 0.678676 0.054802
-0.523156 1.277259 0.199151
0.204237 1.226444 0.252064
-0.524129 1.286212 0.197542
0.026518 -0.178854 -0.019745
0.028051 -0.171084 -0.020141
0.035619 -0.171638 -0.025074
0.024868 -0.169219 -0.018637
0.018211 0.688734 0.055176
0.195825 1.225160 0.247711
0.198538 1.216221 0.247278
-0.492851 1.245642 0.193712
0.015951 0.669029 0.049279
-0.516266 1.267570 0.199819
-0.507359 1.257713 0.200524
-0.507651 1.266147 0.196913
-0.515742 1.276219 0.197453
-0.520111 1.285603 0.196420
-0.515275 1.284853 0.195002
-0.507009 1.274827 0.194728
0.024175 -0.187979 -0.020165
-0.506744 1.283408 0.191969
-0.499920 1.255982 0.195819
-0.499454 1.264615 0.193365
-0.492609 1.254218 0.190918
0.043227 -0.292724 -0.107317
0.049842 -0.294132 -0.110930
0.043690 -0.289535 -0.107748
-0.491426 1.263039 0.189561
-0.498731 1.273317 0.191305
-0.498691 1.281838 0.188200
-0.490377 1.271826 0.188001
-0.490127 1.280403 0.185217
-0.506173 1.276194 0.160664
-0.516031 1.277248 0.163127
-0.508332 1.272664 0.158463
0.043077 -0.296520 -0.106150
0.064642 -0.277448 -0.113057
0.072859 -0.276861 -0.107332
0.056506 -0.275901 -0.109419
0.059409 -0.295844 -0.114732
0.064420 -0.295091 -0.109518
0.062660 -0.286480 -0.112926
0.068583 -0.294908 -0.101444
0.062087 -0.301397 -0.106912
-0.077907 0.216560 0.013279
-0.526315 1.278276 0.162021
-0.529626 1.278241 0.160597
-0.528239 1.274312 0.160364
-0.079018 1.507331 0.124017
-0.087406 1.508813 0.127273
-0.086203 1.517640 0.125946
-0.531115 1.268505 0.157843
-0.535737 1.268366 0.155458
-0.533826 1.264737 0.154832
-0.518997 1.268002 0.160296
-0.525251 1.268354 0.159433
-0.521511 1.263780 0.157773
-0.072801 1.488257 0.123775
-0.079004 1.490312 0.130372
-0.079848 1.498602 0.125913
-0.087316 1.500325 0.130576
-0.085114 1.492450 0.136682
0.020964 0.625892 0.064147
-0.511568 1.266268 0.155576
-0.514015 1.261992 0.153181
-0.071409 1.463087 0.135403
-0.067994 1.455183 0.142530
-0.068409 1.455895 0.142961
-0.072484 1.479829 0.127426
-0.077715 1.482687 0.134055
0.021283 0.634708 0.062429
-0.072389 1.471342 0.130737
-0.073335 1.471794 0.132347
-0.076605 1.473918 0.140375
-0.081487 1.484452 0.146207
0.017423 0.624318 0.055906
-0.078268 1.475305 0.145795
0.069486 1.005657 0.168262
-0.072206 1.468087 0.132246
-0.074329 1.466465 0.145746
-0.095930 1.510259 0.130318
-0.094346 1.514315 0.148645
-0.089502 1.531196 0.143557
-0.084531 1.526590 0.125340
0.017647 0.633154 0.054245
-0.103450 1.511969 0.134898
-0.095381 1.501893 0.134324
-0.092689 1.496251 0.140804
-0.086641 1.495805 0.150360
0.021987 0.643434 0.060472
-0.102932 1.503593 0.138858
-0.100106 1.498935 0.145191
0.022777 0.652140 0.058463
-0.095075 1.505512 0.150255
0.081144 -0.294268 -0.099497
0.018394 0.641871 0.052263
-0.545693 1.297952 0.200196
-0.541883 1.297432 0.199389
-0.540554 1.306292 0.198256
-0.545913 1.306890 0.198809
-0.548205 1.316183 0.198179
-0.536585 1.315844 0.201163
-0.540394 1.322306 0.192559
-0.551054 1.298709 0.201446
-0.550331 1.307410 0.199385
-0.553099 1.318820 0.190634
0.067206 -0.339304 0.101930
-0.558616 1.322348 0.182492
0.018785 0.650669 0.050500
-0.545781 1.315019 0.186503
-0.550419 1.316231 0.178501
-0.121859 1.598472 0.142591
-0.112646 1.588695 0.143766
-0.120395 1.590344 0.147997
0.053167 0.643460 0.072568
0.049866 0.639931 0.063496
0.054969 0.635819 0.072701
-0.105313 1.586936 0.138898
-0.103297 1.582751 0.143736
-0.110840 1.583995 0.148454
-0.118296 1.583199 0.154072
-0.121973 1.606953 0.139250
-0.128980 1.605751 0.145752
-0.121920 1.599009 0.142295
-0.128801 1.600333 0.148057
-0.127967 1.592040 0.152500
0.065595 -0.305525 0.087482
0.065815 -0.313095 0.076695
0.070002 -0.305309 0.080615
-0.135672 1.602214 0.153634
-0.135020 1.593873 0.157797
-0.124867 1.583655 0.157406
-0.133965 1.584526 0.162991
-0.532574 1.296192 0.197544
-0.531279 1.305043 0.196360
-0.523986 1.294762 0.194597
0.069748 -0.301643 -0.095747
0.079768 -0.302894 -0.096579
0.071695 -0.307030 -0.090574
0.073108 -0.309274 -0.087440
0.081896 -0.310651 -0.090081
0.053198 -0.285279 -0.111313
0.045274 -0.283675 -0.107350
0.049360 -0.274093 -0.104264
-0.142185 1.604188 0.159757
-0.141382 1.595886 0.164150
-0.147749 1.606410 0.167330
-0.144642 1.597121 0.168293
-0.147433 1.603028 0.169104
-0.139290 1.587818 0.166735
-0.528252 1.302154 0.185070
0.043721 0.620692 0.050166
0.049900 0.620709 0.052612
-0.542960 1.310614 0.174589
-0.536339 1.302285 0.171690
-0.551386 1.320475 0.175349
0.050658 -0.302968 -0.108870
0.051913 -0.311151 -0.103782
0.058117 -0.311425 -0.102598
0.038655 0.619466 0.042862
-0.544865 1.318502 0.169239
-0.538281 1.308035 0.166391
-0.539975 1.314906 0.161077
-0.540646 1.316309 0.161275
-0.561952 1.326082 0.173524
-0.567670 1.328987 0.165937
-0.566545 1.327810 0.165404
-0.554247 1.326665 0.168389
-0.513791 1.292429 0.190914
-0.519651 1.297108 0.183322
-0.507509 1.292420 0.187371
-0.512164 1.295215 0.178754
0.062479 -0.326310 0.076180
0.064882 1.017256 0.173914
-0.524558 1.295267 0.176019
-0.531225 1.301149 0.179367
-0.534107 1.299423 0.170721
-0.529449 1.293621 0.168671
-0.517221 1.291672 0.171840
-0.520115 1.288413 0.168341
-0.524861 1.288423 0.166564
-0.522534 1.285216 0.165594
-0.501921 1.289934 0.183509
-0.503357 1.289445 0.173987
-0.492960 1.285579 0.178681
-0.497833 1.284117 0.171291
-0.534034 1.297023 0.160260
-0.533926 1.296677 0.160247
-0.531770 1.287619 0.160391
-0.536645 1.306507 0.160340
-0.456618 1.225929 0.242564
-0.456985 1.229876 0.240499
-0.453810 1.224928 0.239272
-0.459680 1.233638 0.234713
-0.450620 1.223820 0.235654
0.063893 1.007873 0.175794
-0.451298 1.232153 0.231450
-0.460024 1.242059 0.231021
-0.457606 1.251204 0.231555
0.023111 0.660951 0.056735
-0.451973 1.240489 0.227253
-0.450386 1.249416 0.226515
-0.444257 1.221807 0.229302
-0.443871 1.230420 0.226727
-0.141861 1.652194 0.167862
-0.140361 1.662548 0.175933
-0.437884 1.219796 0.222965
-0.437307 1.228459 0.220682
-0.137272 1.653530 0.175461
-0.444498 1.238766 0.222601
-0.442475 1.247809 0.222530
-0.436937 1.237068 0.218082
-0.432968 1.247006 0.220846
-0.454519 1.257919 0.234080
-0.452504 1.261054 0.236196
-0.449009 1.266621 0.239814
-0.442793 1.259555 0.236963
-0.439597 1.260756 0.239856
-0.447118 1.255065 0.229733
-0.139034 1.633773 0.169172
-0.139277 1.642515 0.167833
-0.132421 1.634646 0.175527
-0.134050 1.644000 0.175789
-0.140414 1.628880 0.170912
-0.139118 1.625697 0.174206
-0.131402 1.625526 0.176424
-0.138615 1.617317 0.178140
-0.132382 1.616863 0.178550
-0.128329 1.644982 0.181907
-0.129305 1.647282 0.182150
-0.124824 1.635294 0.181276
0.022741 0.669924 0.055439
-0.126272 1.625384 0.177773
-0.121865 1.625730 0.180982
-0.123174 1.629977 0.181109
-0.127823 1.616466 0.178565
-0.119045 1.616199 0.180773
-0.119450 1.627174 0.188214
-0.115638 1.617805 0.189096
-0.118790 1.625858 0.189776
-0.435051 1.251289 0.233320
0.018203 0.659689 0.049334
-0.141686 1.625492 0.172325
-0.439859 1.250584 0.225757
-0.425206 1.257167 0.229699
-0.427277 1.252677 0.228001
-0.421830 1.266563 0.231700
-0.429029 1.268358 0.236773
0.063976 -0.317406 0.075305
-0.471023 1.213639 0.223688
-0.472110 1.221878 0.219276
-0.077356 0.208827 0.016035
-0.476265 1.226485 0.210377
-0.467353 1.211983 0.217863
-0.467249 1.219458 0.210208
-0.466118 1.211244 0.215106
-0.468979 1.222324 0.206327
-0.478298 1.228755 0.206225
-0.472572 1.227784 0.198448
-0.480584 1.231345 0.201540
-0.484345 1.237183 0.193246
-0.475483 1.234322 0.191278
-0.477768 1.242885 0.187459
-0.459455 1.209310 0.209213
-0.460179 1.217631 0.204939
-0.461492 1.220434 0.201759
-0.450752 1.208190 0.207664
-0.450122 1.208729 0.207161
-0.451312 1.216274 0.202418
-0.454230 1.222712 0.195273
-0.463986 1.225144 0.195947
-0.465493 1.228900 0.192097
-0.466559 1.232981 0.188843
-0.467136 1.241341 0.184795
-0.457757 1.231998 0.186594
-0.458231 1.239994 0.182332
-0.475098 1.251446 0.185534
-0.479649 1.252078 0.186549
0.005431 0.754220 0.174984
-0.004054 0.755417 0.178120
0.003495 0.750146 0.173350
0.013460 0.752644 0.171181
0.010891 0.747213 0.169020
-0.473228 1.260448 0.185230
-0.482977 1.261281 0.187212
-0.483025 1.270787 0.186287
-0.483409 1.279599 0.184290
-0.480569 1.279227 0.183755
-0.471679 1.269366 0.184434
-0.470134 1.278282 0.183632
-0.466076 1.250130 0.183251
-0.464179 1.259139 0.182988
-0.457692 1.248646 0.179991
-0.456519 1.257466 0.178620
-0.462645 1.268053 0.182169
-0.461331 1.276909 0.181014
-0.458693 1.265563 0.171432
-0.462230 1.274760 0.171278
-0.424142 1.218149 0.221045
-0.417981 1.217652 0.221241
0.018447 0.746108 0.164271
-0.419049 1.227565 0.216482
0.020978 0.750934 0.166597
0.003407 0.774394 0.181645
-0.000974 0.775050 0.182828
0.002324 0.769890 0.181557
-0.415922 1.243726 0.214893
-0.426282 1.245186 0.218094
-0.418016 1.235425 0.213699
-0.429782 1.218238 0.219272
-0.430079 1.226673 0.215653
-0.437740 1.208549 0.209925
-0.429967 1.214308 0.202976
-0.428689 1.235548 0.214612
0.001043 0.765263 0.181192
0.054686 1.009603 0.181948
0.057308 1.019930 0.178048
-0.411219 1.215743 0.215499
-0.408917 1.224858 0.215855
-0.405843 1.214971 0.209064
-0.401127 1.223219 0.211686
-0.408410 1.233503 0.213464
-0.406644 1.242478 0.213003
0.053247 1.019307 0.181309
-0.398803 1.231468 0.213302
-0.396396 1.241483 0.212595
-0.401126 1.241935 0.212752
0.012044 0.772977 0.178771
0.010865 0.763673 0.176898
-0.422178 1.211451 0.199258
-0.102328 1.579208 0.146632
-0.095535 1.568795 0.144103
-0.102200 1.570730 0.149994
-0.414761 1.208765 0.194871
0.005426 0.783435 0.181567
-0.419075 1.254259 0.223302
-0.088941 1.533053 0.153546
-0.090440 1.540915 0.145308
0.007148 0.792398 0.181035
-0.090046 1.558042 0.139579
-0.097052 1.559886 0.144949
-0.090823 1.549326 0.141556
-0.097681 1.551211 0.147153
-0.103203 1.561956 0.151625
-0.103415 1.553389 0.154466
-0.096700 1.542956 0.151818
-0.094840 1.535662 0.157560
0.014592 0.782157 0.179504
-0.103245 1.544859 0.160651
0.016849 0.791510 0.179022
-0.101046 1.536986 0.164423
-0.411543 1.252463 0.218773
-0.402605 1.252048 0.216017
-0.404844 1.246686 0.214368
0.025763 0.789200 0.174214
0.023705 0.785007 0.175819
-0.393631 1.250720 0.213659
0.020378 0.771481 0.175435
-0.442273 1.215751 0.201184
0.017065 0.761510 0.173751
-0.447075 1.222846 0.192404
0.024706 0.759258 0.169569
0.027793 0.769744 0.170691
-0.434212 1.215605 0.195583
-0.437964 1.222038 0.187083
0.183661 1.206977 0.244307
0.022807 0.780630 0.175986
-0.448260 1.230416 0.184667
-0.079354 1.476880 0.152257
-0.072000 1.456687 0.155263
0.029357 0.778666 0.169921
0.030398 0.787449 0.168348
-0.077442 1.469218 0.157708
-0.074854 1.459103 0.167254
-0.006077 0.725667 0.166873
-0.015486 0.727833 0.167716
-0.448168 1.238005 0.179054
-0.015366 0.735947 0.167867
-0.002884 0.736343 0.168099
-0.439837 1.228943 0.181467
-0.044988 1.468869 0.211174
-0.038116 1.466990 0.205601
-0.044671 1.469577 0.211427
-0.037004 1.469744 0.206387
-0.087434 1.515669 0.157218
-0.087511 1.524661 0.156124
-0.009393 0.745507 0.171794
-0.019578 0.745487 0.167576
-0.088165 1.506927 0.159098
-0.084741 1.496943 0.157142
0.000623 0.744447 0.170794
-0.088050 1.498986 0.164797
-0.093206 1.526849 0.163497
-0.092643 1.518486 0.167524
-0.099509 1.528879 0.169942
-0.097270 1.521063 0.172473
0.079945 1.041824 0.171009
-0.091788 1.501188 0.172984
-0.093002 1.509031 0.171295
-0.026798 0.726978 0.164641
-0.026015 0.735687 0.162637
-0.095896 1.511945 0.182919
-0.092356 1.503451 0.182656
-0.087917 1.504821 0.190345
-0.090613 1.511114 0.191029
-0.082186 1.487802 0.158542
-0.083435 1.493553 0.156870
-0.079980 1.478081 0.157265
0.084318 1.052631 0.176781
-0.080740 1.478554 0.167836
-0.086306 1.491055 0.170278
-0.078690 1.471726 0.170351
0.002650 0.724275 0.164138
0.004194 0.732881 0.165220
-0.082777 1.483283 0.179676
0.009926 0.722501 0.159183
-0.076240 1.464529 0.179147
0.012596 0.731476 0.159818
-0.078896 1.473714 0.178957
0.008913 0.742940 0.167391
-0.078826 1.475652 0.189151
-0.077227 1.467217 0.191566
0.015930 0.741098 0.162039
-0.088426 1.494293 0.182876
-0.081897 1.485671 0.189694
0.053799 -0.295688 0.085578
-0.083439 1.495107 0.191583
0.047155 -0.286166 0.084275
0.052551 -0.289871 0.081382
0.026391 0.748615 0.158723
0.041163 -0.291637 0.098420
0.042348 -0.282816 0.097067
-0.079508 1.503740 0.195862
-0.085602 1.516300 0.196543
0.030279 0.760017 0.164431
0.033669 0.767279 0.162178
-0.074758 1.505412 0.203296
-0.079861 1.518069 0.204461
-0.071752 1.508279 0.211666
-0.075877 1.517962 0.212529
-0.072934 1.518826 0.216936
-0.070472 1.519258 0.219774
-0.070822 1.520305 0.219824
-0.064860 1.508404 0.217966
0.033264 0.755665 0.151637
0.035642 0.762050 0.150782
-0.063625 1.488558 0.208315
-0.054972 1.489053 0.214821
-0.057218 1.498544 0.214237
-0.046556 1.469356 0.212697
-0.063205 1.486840 0.209755
-0.058638 1.484804 0.217945
-0.077868 1.496022 0.196113
-0.078493 1.487276 0.198019
-0.070355 1.496689 0.201914
-0.070197 1.487765 0.203341
0.034669 0.775982 0.160233
0.034612 0.785609 0.158098
0.037242 0.773068 0.148495
-0.080978 1.480105 0.200788
-0.081726 1.470336 0.203103
0.036839 0.781555 0.146145
-0.075744 1.485238 0.207398
0.016183 0.720459 0.152669
0.186064 1.216121 0.244812
-0.087553 1.480946 0.207232
-0.083187 1.487629 0.211853
-0.087768 1.472378 0.210068
-0.065068 1.497864 0.209082
-0.069321 1.504316 0.210756
0.018452 0.729566 0.152974
0.023533 0.718029 0.144870
-0.441428 1.238397 0.175359
0.024260 0.726832 0.143260
-0.426248 1.212389 0.192285
-0.430581 1.220160 0.182340
-0.418814 1.210671 0.187566
0.021288 0.737350 0.153509
-0.422972 1.218773 0.177783
-0.431989 1.227319 0.177386
-0.432913 1.235588 0.172806
-0.424160 1.225690 0.173277
-0.424647 1.234074 0.169366
-0.450234 1.246920 0.175314
-0.452274 1.255484 0.168807
0.029034 0.745460 0.146712
-0.442129 1.245364 0.171627
-0.444429 1.254368 0.164534
0.025644 0.736282 0.144724
-0.422797 1.270517 0.167887
-0.413039 1.271009 0.171825
-0.418360 1.261463 0.165973
-0.434366 1.244199 0.169514
0.027093 0.734822 0.138904
0.031193 0.743120 0.134543
-0.432527 1.251423 0.166559
-0.424306 1.242675 0.166722
-0.423110 1.251500 0.165386
0.027620 0.716096 0.137992
-0.432096 1.270257 0.163182
-0.430621 1.270235 0.163650
-0.431539 1.266906 0.163394
0.027252 0.724510 0.134262
-0.439850 1.260758 0.159053
-0.431776 1.261177 0.163981
-0.437174 1.269034 0.155886
0.029348 0.714148 0.130148
0.028305 0.723274 0.129265
-0.468793 1.287145 0.182518
-0.464440 1.284605 0.173091
-0.464647 1.284199 0.171241
-0.422964 1.281826 0.176884
-0.417865 1.282092 0.180001
-0.420956 1.279326 0.175999
-0.426045 1.275420 0.169169
-0.430178 1.281091 0.170898
-0.411435 1.281576 0.180218
-0.408552 1.279394 0.178708
-0.485104 1.243993 0.189479
0.064107 -0.301522 -0.097385
0.060303 -0.309541 -0.093524
0.043153 -0.301255 -0.104264
0.029857 0.713000 0.125326
-0.484230 1.252732 0.187650
0.029765 0.721487 0.122019
-0.052309 1.509696 0.218988
-0.044962 1.506605 0.214639
-0.044172 1.508314 0.215288
-0.049506 1.517606 0.220608
-0.041314 1.516073 0.217055
-0.046783 1.526831 0.221608
-0.504964 1.274989 0.155863
-0.473657 1.273677 0.162154
-0.478014 1.273598 0.160141
-0.476162 1.269485 0.159636
-0.464557 1.263864 0.162775
-0.468701 1.273854 0.164837
-0.471393 1.263198 0.157597
-0.469278 1.260728 0.156638
0.028291 0.733294 0.132687
0.043716 -0.309619 -0.100236
-0.457365 1.255205 0.160625
0.029433 0.731903 0.127049
-0.462298 1.251892 0.154658
0.033936 0.740023 0.122524
-0.449798 1.254223 0.155849
-0.453456 1.250289 0.150141
0.031014 0.730326 0.120765
-0.470517 1.251727 0.148164
-0.467544 1.247382 0.146966
-0.470397 1.250144 0.141295
-0.460050 1.245572 0.142379
-0.462161 1.248621 0.137809
-0.062441 1.509385 0.220071
-0.058925 1.514605 0.223851
