ply
format ascii 1.0
comment VCGLIB generated
element vertex 1706
property float x
property float y
property float z
element face 0
property list uchar int vertex_indices
end_header
-0.352667 1.936534 -0.563483
0.055907 1.244904 0.116468
-0.370134 1.984313 -0.587517
0.056839 1.259822 0.116598
-0.357942 1.966970 -0.580822
-0.368521 1.982624 -0.586706
-0.357560 1.967442 -0.581439
-0.465830 1.920448 -0.577632
-0.460281 1.918281 -0.557415
-0.435355 1.907387 -0.561076
-0.427356 1.902748 -0.556810
0.065741 1.258575 0.129873
-0.447461 1.912178 -0.550491
-0.435562 1.905539 -0.544128
-0.469536 1.920863 -0.545345
-0.480407 1.926768 -0.551169
-0.487675 1.930775 -0.537872
0.065985 1.273428 0.131026
-0.454814 1.912475 -0.537485
-0.462161 1.913069 -0.524455
0.075073 1.242389 0.142888
0.947710 3.197860 -1.594058
0.938047 3.218239 -1.598242
0.952000 3.167825 -1.593577
0.956614 3.137769 -1.592913
0.971200 3.169221 -1.616892
0.952100 3.230000 -1.623818
0.153804 1.592449 -0.529339
0.973852 3.201477 -1.647636
0.958233 3.230533 -1.632385
0.979912 3.208720 -1.675016
0.264117 1.988438 0.480148
0.978504 3.171418 -1.646951
0.976265 3.143738 -1.674512
0.929216 3.261288 -1.634840
0.970127 3.174672 -1.685900
0.960765 3.110039 -1.590409
0.076790 1.287019 0.145167
0.242630 2.019018 0.486548
0.977160 3.109328 -1.617416
0.968944 3.093106 -1.607094
0.976037 3.102172 -1.618527
0.087493 1.271079 0.154655
0.965085 3.079051 -1.609113
0.974358 3.094644 -1.619980
0.969120 3.080124 -1.623925
0.088239 1.285975 0.155111
0.951446 3.062189 -1.580831
0.953215 3.069741 -1.582129
0.057807 1.319177 0.121950
0.934202 3.018011 -1.614278
0.065298 1.303170 0.133228
0.922728 3.037691 -1.653216
0.065120 1.318028 0.134434
0.983522 3.111588 -1.648008
0.967386 3.079029 -1.659364
0.976642 3.114159 -1.678695
0.972995 3.096066 -1.674413
-0.421879 1.897432 -0.536841
0.065257 1.332876 0.135687
0.971069 3.115118 -1.689268
0.958038 3.086736 -1.679403
0.065697 1.347718 0.136924
0.963651 3.100214 -1.687701
0.966762 3.109251 -1.692113
0.953636 3.101943 -1.700093
0.947887 3.085590 -1.687262
0.931070 3.054398 -1.665943
-0.429230 1.897854 -0.523826
-0.416420 1.891322 -0.516935
-0.436613 1.896879 -0.510920
-0.423799 1.890498 -0.504017
1.001162 3.234761 -1.698602
0.088639 1.300832 0.156172
1.006518 3.250747 -1.713343
0.147918 1.544911 -0.493433
0.993193 3.207097 -1.724712
0.996226 3.222442 -1.730623
0.972849 3.147433 -1.720508
0.089150 1.344963 0.165158
0.096417 1.241024 0.163217
-1.254886 2.359603 -1.130956
-1.272758 2.350305 -1.130802
-1.269711 2.360259 -1.134991
0.992316 3.239162 -1.752001
0.110817 1.252349 0.171812
0.987972 3.241030 -1.774479
-1.261016 2.344048 -1.125090
-1.264945 2.370132 -1.142225
-1.243997 2.342704 -1.115658
-1.241763 2.358752 -1.123942
-1.239062 2.368566 -1.127539
-1.293031 2.352331 -1.125064
-1.300268 2.357766 -1.111654
0.112276 1.269208 0.171245
0.113160 1.284121 0.171458
-1.235022 2.389148 -1.132217
-1.238744 2.382506 -1.126443
-1.251343 2.398270 -1.132607
-1.251642 2.388271 -1.116246
-1.253190 2.394537 -1.099531
-1.255098 2.401654 -1.095320
-1.265152 2.432479 -1.104183
0.125405 1.268358 0.178249
-1.270741 2.417027 -1.096162
-1.291113 2.372612 -1.095773
0.984054 2.962876 -1.588707
0.126420 1.283285 0.178232
0.932464 2.973703 -1.617474
-1.264374 2.356156 -1.084369
-1.268345 2.370538 -1.075423
-1.294117 2.381944 -1.089365
-1.281142 2.382634 -1.081906
0.139254 1.267590 0.183992
-1.193058 2.357270 -1.119212
-1.198221 2.358958 -1.139209
-1.185767 2.355323 -1.132332
-1.181455 2.355930 -1.109602
-1.149441 2.340393 -1.107393
-1.148188 2.340712 -1.111819
-1.147233 2.340241 -1.111304
-1.167332 2.349935 -1.104964
-1.160040 2.346906 -1.118185
-1.134385 2.335374 -1.104283
-1.141772 2.334205 -1.091392
-1.128956 2.327938 -1.084481
-1.125935 2.368031 -1.081032
-1.233253 2.373503 -1.123896
-1.227557 2.374464 -1.137766
-1.233924 2.348387 -1.108739
-1.230981 2.357632 -1.112832
-1.229517 2.372611 -1.113632
0.112996 1.313724 0.175268
0.100916 1.331640 0.171402
-1.241631 2.333238 -1.096948
0.149871 1.560902 -0.507247
0.112158 1.326085 0.178216
-1.225229 2.341123 -1.094678
-1.236054 2.332284 -1.076635
-1.202822 2.330214 -1.074972
-1.223185 2.328312 -1.069543
-1.212937 2.377612 -1.112019
-1.233230 2.378809 -1.106347
-1.220646 2.386314 -1.100359
-1.217737 2.430850 -1.097222
-1.226418 2.431189 -1.099018
-1.217648 2.416049 -1.099138
-1.220420 2.401142 -1.098885
-0.329145 1.856055 -0.486571
-1.192581 2.379236 -1.117468
0.140656 1.312184 0.186822
-1.187050 2.376278 -1.097315
-1.179708 2.375469 -1.110360
-1.201445 2.385929 -1.101038
-1.202386 2.400632 -1.097631
-0.332858 1.886363 -0.513602
-1.189997 2.384885 -1.091092
-1.246195 2.401432 -1.095082
-1.234737 2.416444 -1.099212
-1.233068 2.431447 -1.100372
0.126493 1.325708 0.186096
-1.175152 2.354398 -1.091952
0.139286 1.326838 0.190980
-1.182082 2.348632 -1.079102
-1.149186 2.331864 -1.078595
-1.136384 2.324978 -1.071732
-1.156563 2.331152 -1.065668
0.138464 1.333375 0.193207
0.055001 1.379651 0.114179
0.378184 2.813923 -1.869307
0.349576 2.815354 -1.879201
-1.189907 2.328305 -1.067718
-1.185368 2.338626 -1.074497
-1.197321 2.325954 -1.054920
0.148551 1.529901 -0.492848
-1.164047 2.325707 -1.053113
-1.150642 2.320504 -1.048963
0.336619 2.303657 -1.451857
0.059627 1.378630 0.125809
0.340123 2.335855 -1.482120
0.334586 2.351299 -1.484270
0.350796 2.308319 -1.515259
0.355855 2.338733 -1.523280
0.150680 1.530488 -0.500935
-1.167553 2.321144 -1.047473
-1.171598 2.317399 -1.040784
0.066153 1.362561 0.138159
-1.158754 2.312326 -1.033778
-1.161095 2.377863 -1.082381
-1.153735 2.377850 -1.095364
-1.177841 2.383923 -1.082386
-1.177006 2.398830 -1.082086
0.295140 2.585372 -1.628957
0.291435 2.555426 -1.598662
0.306399 2.557107 -1.624378
-1.164451 2.383102 -1.075839
-1.148174 2.376185 -1.075109
-1.152373 2.382131 -1.066996
-1.140277 2.381162 -1.058184
0.285479 2.653133 -1.698784
0.299568 2.622607 -1.692737
0.064518 1.377664 0.136674
0.067411 1.377166 0.142168
-1.231385 2.446396 -1.100859
-1.246014 2.447130 -1.105935
-1.231725 2.446412 -1.100962
-1.102509 2.321683 -1.069780
-1.090336 2.316669 -1.063153
0.308932 2.516432 -1.488095
0.279028 2.486013 -1.472800
0.298311 2.487402 -1.496068
0.260903 2.455751 -1.462933
0.277105 2.456397 -1.475842
0.295340 2.457857 -1.499703
0.295903 2.428073 -1.501336
-1.102359 2.357682 -1.067332
0.301768 2.519653 -1.526967
0.301344 2.520972 -1.526508
0.058146 1.409642 0.134656
-1.064578 2.348307 -1.045740
0.062536 1.392671 0.136526
0.313318 2.485744 -1.553286
0.306904 2.459767 -1.527346
0.318512 2.461674 -1.554965
0.158770 1.515684 -0.505130
0.327212 2.431342 -1.551984
0.300770 2.522362 -1.561121
0.290521 2.537408 -1.565990
-1.050852 2.343234 -1.038851
0.066900 1.391918 0.144824
0.301110 2.365541 -1.468086
0.294510 2.375983 -1.471172
0.066182 1.406647 0.147840
0.229645 2.340614 -1.510554
0.241131 2.308751 -1.506031
0.205382 2.310699 -1.503301
-0.362256 1.902346 -0.399324
0.255360 2.324252 -1.531311
0.231193 2.363590 -1.542539
0.076231 1.375821 0.156713
0.345984 2.367895 -1.511044
0.316968 2.392488 -1.508822
0.325630 2.398850 -1.523939
0.339463 2.410604 -1.546345
-0.365971 1.877846 -0.395685
0.087071 1.352781 0.165116
0.351665 2.310711 -1.545926
0.260929 2.312545 -1.542905
0.251182 2.349113 -1.549255
0.246049 2.369530 -1.568036
0.265130 2.328728 -1.559811
0.077188 1.390419 0.160906
0.253379 2.368198 -1.581123
0.076690 1.405288 0.162071
0.269760 2.345978 -1.590410
0.274006 2.333570 -1.588798
0.258541 2.316802 -1.596340
0.259592 2.317932 -1.598060
-1.130912 2.319446 -1.051780
0.065720 1.421405 0.150411
0.065619 1.436204 0.152349
-1.084873 2.310730 -1.043234
-1.105095 2.314989 -1.037321
0.235265 2.387609 -1.607388
0.331576 2.467831 -1.581473
0.344461 2.475215 -1.608003
0.369352 2.433535 -1.596515
0.306243 2.525370 -1.594693
0.320153 2.493999 -1.586283
0.278473 2.553610 -1.571811
-0.377817 1.878844 -0.404933
0.359719 2.493345 -1.635591
0.382344 2.497875 -1.653624
0.393245 2.467394 -1.649395
0.395838 2.437474 -1.649876
0.333847 2.530095 -1.642213
0.065477 1.465810 0.156121
0.077868 1.420089 0.163610
0.359529 2.529159 -1.664607
0.349504 2.541786 -1.669507
0.076904 1.435142 0.162579
0.364275 2.372042 -1.569074
0.367378 2.377751 -1.599490
0.076951 1.467719 0.166371
0.353314 2.308628 -1.581480
0.360717 2.344007 -1.591753
0.363240 2.359108 -1.594408
0.089943 1.449092 0.171502
0.359030 2.315594 -1.610149
0.275266 2.346952 -1.604388
0.272243 2.367467 -1.613364
0.280479 2.347945 -1.618533
0.102785 1.448209 0.179009
0.283719 2.349209 -1.635543
0.103473 1.463099 0.179565
0.372334 2.376877 -1.632904
0.117091 1.462304 0.185714
0.371867 2.379524 -1.667612
0.358734 2.318303 -1.644517
0.357934 2.318782 -1.650368
0.353672 2.351080 -1.679636
-1.096772 2.357159 -1.046988
-1.083799 2.357781 -1.039534
0.142496 1.445694 0.199452
-1.101223 2.363761 -1.038350
0.145377 1.460836 0.196171
0.271051 2.462270 -1.685172
0.255417 2.471197 -1.693519
0.291711 2.443149 -1.691810
0.295263 2.457953 -1.705998
0.272035 2.473535 -1.692290
0.288427 2.474461 -1.708820
0.270565 2.489890 -1.718014
0.109607 1.239280 0.172394
-1.138400 2.313831 -1.039238
0.263047 2.377521 -1.609365
0.255613 2.388847 -1.612869
0.249604 2.393301 -1.616011
0.272698 2.378215 -1.620993
0.250378 2.404809 -1.632001
0.274221 2.394331 -1.636254
0.270614 2.401149 -1.637867
0.282449 2.395121 -1.648688
0.287153 2.379930 -1.646997
-1.133014 2.304521 -1.019583
0.151163 1.562362 -0.526187
-1.115893 2.379246 -1.040896
0.285242 2.410291 -1.663285
0.292592 2.411989 -1.675290
0.291600 2.380976 -1.661576
0.296840 2.396840 -1.674729
0.155549 1.547731 -0.538094
-1.101058 2.378591 -1.036879
0.137424 1.341435 0.196001
0.297264 2.427902 -1.689638
0.305965 2.428660 -1.701805
0.308569 2.395765 -1.702475
0.086125 1.374599 0.169378
0.294142 2.387350 -1.711270
0.085884 1.389382 0.171561
-1.084298 2.392969 -1.034468
-1.072037 2.305312 -1.036256
0.247798 1.987905 0.471604
0.166023 1.516540 -0.518117
-1.055703 2.347103 -1.029836
-1.072011 2.362399 -1.029514
-1.044768 2.348939 -1.018642
-1.028384 2.345523 -1.017685
0.109617 1.357769 0.186467
0.108909 1.372499 0.189466
-1.259446 2.369174 -1.061251
-1.230199 2.343506 -1.055366
-1.248256 2.367790 -1.046902
-1.237104 2.363445 -1.040815
-1.219824 2.351839 -1.042411
-1.224292 2.384500 -1.030647
-1.223148 2.396227 -1.030904
-1.236008 2.411433 -1.037041
0.097598 1.403180 0.182803
-0.320229 1.885455 -0.505723
-1.202248 2.336688 -1.044953
0.108827 1.387300 0.191371
-1.195053 2.335156 -1.027564
-1.204345 2.340683 -1.040779
-1.210266 2.350757 -1.026910
-1.176937 2.320085 -1.027205
0.122325 1.356870 0.194206
0.339383 2.563943 -1.708212
0.121739 1.371614 0.196993
0.135968 1.356079 0.200310
0.282192 2.684413 -1.715391
0.304302 2.686441 -1.754325
-1.191324 2.334207 -1.016576
0.258315 2.750348 -1.786485
0.278288 2.750924 -1.799606
0.296677 2.752374 -1.823380
0.121674 1.386418 0.198868
0.279603 2.731481 -1.765753
0.122239 1.401293 0.199641
0.234823 1.988485 0.464296
-0.365946 1.936756 -0.418985
0.134839 1.385571 0.205809
0.304806 2.654520 -1.722026
0.327332 2.622186 -1.745653
0.135122 1.400415 0.207074
0.324626 2.593692 -1.714692
0.339057 2.595409 -1.740710
0.353740 2.565040 -1.734313
0.099185 1.418173 0.181787
0.101157 1.433211 0.180096
0.316543 2.657403 -1.782015
0.332290 2.628301 -1.776795
0.332923 2.642127 -1.809902
0.352273 2.597208 -1.767417
0.343425 2.611650 -1.771525
0.111203 1.417195 0.190735
0.113458 1.432265 0.188549
0.360174 2.603676 -1.796854
0.373609 2.568713 -1.791471
0.321184 2.661485 -1.815340
-1.215953 2.364736 -1.017443
0.314049 2.811275 -1.817020
0.288201 1.973794 0.475466
0.323436 2.726203 -1.878560
0.384634 2.811314 -1.838010
0.136402 1.415373 0.206596
0.318116 2.786836 -1.887626
0.320503 2.816732 -1.888281
0.328099 2.758878 -1.908129
0.139015 1.430484 0.203784
0.361127 2.696606 -1.893342
0.352816 2.714356 -1.896926
0.345695 2.727392 -1.900140
0.364946 2.722858 -1.923814
0.343921 2.760467 -1.935943
0.356575 2.632043 -1.831426
0.028572 1.492266 0.020525
0.372622 2.573367 -1.827114
0.366171 2.600473 -1.812975
0.368818 2.601472 -1.826437
0.370108 2.604074 -1.859904
0.027819 1.507190 0.021074
0.372196 2.574188 -1.860672
0.335260 2.663225 -1.841559
0.322638 2.682083 -1.847534
0.168586 1.522861 -0.533426
0.367808 2.666410 -1.891506
0.368673 2.636606 -1.892967
0.378088 2.579170 -1.925732
0.410848 2.501332 -1.705862
0.404208 2.513035 -1.708889
0.407529 2.439375 -1.677447
0.413953 2.441632 -1.708004
0.374938 2.530809 -1.690071
0.030505 1.521881 0.023572
0.412126 2.502736 -1.724080
0.412200 2.503931 -1.739296
0.393242 2.523196 -1.748864
0.383330 2.535623 -1.753712
0.019290 1.522858 0.031669
0.410094 2.508126 -1.778783
0.023244 1.535899 0.037531
0.383757 2.539552 -1.789660
0.008564 1.489951 0.046921
0.415156 2.445585 -1.758623
0.421117 2.461401 -1.771367
0.399512 2.410170 -1.683944
0.386768 2.393939 -1.692290
0.405065 2.410951 -1.720350
0.373768 2.382160 -1.700491
-0.342845 1.972353 -0.450556
0.348140 2.386333 -1.746111
0.339851 2.354701 -1.721671
-1.187890 2.325719 -0.980795
0.005830 1.489765 0.058932
0.335479 2.355257 -1.727473
-1.213736 2.379802 -1.019563
0.007311 1.520755 0.044622
0.379268 2.401549 -1.799204
0.306725 2.444826 -1.717498
0.303005 2.453161 -1.719077
0.309215 2.443550 -1.732165
0.291669 2.476210 -1.725986
0.277949 2.490957 -1.730913
0.012215 1.533516 0.048262
0.299792 2.460167 -1.720453
0.003067 1.520599 0.059906
0.293430 2.493031 -1.756307
0.292751 2.494487 -1.756600
0.300262 2.477697 -1.753409
0.009934 1.534106 0.064185
0.305444 2.478693 -1.767571
0.031983 1.546518 0.043221
0.307950 2.448778 -1.768102
0.294787 2.509157 -1.771662
0.258045 2.511634 -1.792493
-1.219262 2.393585 -1.009357
-1.205490 2.367669 -1.005287
0.057188 1.563622 0.060072
0.309791 2.479744 -1.782207
0.310490 2.464825 -1.782787
0.310727 2.449936 -1.783628
0.312316 2.450896 -1.796295
0.303328 2.509926 -1.783920
0.294022 2.525639 -1.784731
0.282513 2.536535 -1.794067
0.071350 1.578619 0.050632
0.309227 2.510873 -1.797676
0.302305 2.525846 -1.800189
0.076827 1.593122 0.054712
0.257831 2.513316 -1.813818
0.263806 2.530005 -1.822373
0.311159 2.513341 -1.815948
0.297201 2.535088 -1.820147
0.301800 2.528459 -1.829047
0.309523 2.513543 -1.831707
-1.205183 2.381122 -1.004229
0.031461 1.546584 0.077303
0.043341 1.553560 0.084549
0.312577 2.495774 -1.796752
-1.213749 2.392520 -0.991188
-1.235188 2.408838 -1.002367
0.315370 2.496931 -1.812269
0.314098 2.497891 -1.824111
0.312906 2.482944 -1.823786
0.311778 2.498518 -1.831405
-1.201210 2.378147 -1.002154
-1.153134 2.313290 -1.013316
-1.140229 2.310885 -1.006100
0.061980 1.576561 0.079519
0.313924 2.414460 -1.713645
0.311906 2.429604 -1.715537
0.250715 1.975474 0.464980
0.064812 1.589052 0.081957
-1.156167 2.317736 -1.007437
0.313506 2.416694 -1.741936
0.322199 2.388071 -1.760673
0.310357 2.432398 -1.750613
0.314154 2.417269 -1.749436
0.312556 2.435140 -1.766365
0.320883 2.418161 -1.762721
-1.127390 2.305638 -0.999108
-1.134228 2.315564 -0.985304
-1.121787 2.305820 -0.978707
-1.158128 2.329964 -0.972260
0.009006 1.488832 0.077360
0.327799 2.419039 -1.775900
0.006573 1.503112 0.079095
0.327422 2.421323 -1.793154
0.312543 2.436111 -1.798453
0.311746 2.421208 -1.798819
-1.166222 2.360898 -0.983078
-1.151868 2.360304 -0.979695
-1.187379 2.348121 -0.979033
0.008500 1.518786 0.079865
-1.141692 2.323974 -0.971701
0.013130 1.533192 0.074889
-1.132337 2.328209 -0.957436
-1.135585 2.357505 -0.948825
-1.169675 2.375429 -0.976749
0.411331 2.509369 -1.808187
0.180063 1.518283 -0.544357
0.410672 2.511523 -1.842069
0.429268 2.478414 -1.799970
0.422084 2.496937 -1.802859
0.444246 2.450348 -1.827629
0.166629 1.534061 -0.550998
0.163366 1.539412 -0.552511
0.016494 1.501598 0.095461
-0.377916 1.874940 -0.496010
-1.173701 2.379584 -0.969154
-1.148145 2.363735 -0.955592
0.022173 1.500846 0.103373
-1.102570 2.334682 -0.948646
-1.103733 2.354833 -0.944200
0.423192 2.483816 -1.866898
0.448351 2.417636 -1.793053
0.439173 2.387353 -1.785507
-1.130338 2.357151 -0.945850
-1.119305 2.356969 -0.946741
0.461175 2.429112 -1.819349
0.021929 1.532233 0.088320
-1.095489 2.310555 -0.933743
-1.089975 2.309812 -0.925893
-1.081822 2.324577 -0.925919
0.193901 1.517423 -0.553695
0.183342 1.524383 -0.559272
0.376568 2.541893 -1.831481
0.028522 1.514352 0.107236
0.385635 2.526150 -1.856145
0.308015 2.514362 -1.841685
0.039669 1.529337 0.116197
0.406640 2.515064 -1.879247
-1.096668 2.347948 -0.927216
-1.088706 2.339472 -0.923223
-1.084094 2.331108 -0.921136
-1.122341 2.358719 -0.941178
-1.190395 2.330975 -0.975751
-1.111195 2.354516 -0.917897
-1.104021 2.348268 -0.914208
-1.117823 2.353618 -0.904555
-1.113472 2.333876 -0.868987
-1.116748 2.358474 -0.920810
0.045077 1.483067 0.132704
0.045732 1.490193 0.133322
-0.352303 1.861596 -0.482251
0.285508 2.881390 -1.939916
0.300659 2.822355 -1.954019
-0.930867 2.349082 -0.901160
-0.873704 2.310065 -0.871058
-0.348512 1.852076 -0.463521
-0.832983 2.313632 -0.881935
-1.080855 2.324069 -0.919747
-1.049425 2.384131 -0.932225
-1.001792 2.375934 -0.939923
-1.016878 2.359943 -0.915215
-1.031623 2.358856 -0.889336
-1.054822 2.381806 -0.901085
-0.956745 2.349696 -0.901449
-0.989610 2.347210 -0.904300
-1.023129 2.349923 -0.885068
-1.006262 2.334457 -0.876446
-1.004751 2.351374 -0.908848
-0.970930 2.318445 -0.880145
-0.981096 2.301519 -0.864227
-1.073395 2.309237 -0.882082
-1.087676 2.328515 -0.854600
-1.037491 2.379479 -0.876534
0.265150 1.960982 0.461118
0.210999 1.523376 -0.577911
0.217262 1.519809 -0.574567
-1.005338 2.346034 -0.840782
0.190742 1.526093 -0.572120
-1.014251 2.377431 -0.857244
0.283953 1.959763 0.465011
-0.937991 2.312678 -0.878406
0.037622 1.544877 0.095446
0.046411 1.560048 0.103917
-0.307382 1.837869 -0.473102
0.801632 1.463749 -0.416359
-0.306507 1.884673 -0.499758
0.789993 1.463555 -0.405710
0.177471 1.535857 -0.577955
0.050567 1.574162 0.104753
-0.267612 1.852443 -0.481408
-0.273854 1.837592 -0.472165
-0.293799 1.831224 -0.468004
-0.281986 1.868646 -0.493176
-0.278327 1.864112 -0.491383
-0.320930 1.836247 -0.449386
0.042246 1.542767 0.134779
0.039976 1.557792 0.134468
-0.301219 1.828598 -0.455228
0.041835 1.541647 0.149132
-0.327294 1.912650 -0.550552
0.038885 1.552811 0.151700
-0.351710 1.935527 -0.563002
-0.340019 1.922930 -0.557148
0.038749 1.572748 0.134748
-0.377924 2.004393 -0.480602
-0.364577 2.003568 -0.473981
-0.288470 1.987479 -0.489085
-0.319055 2.002311 -0.471211
-0.278014 1.955004 -0.450865
-0.262732 1.979564 -0.474899
-0.323783 2.248263 -0.698411
-0.331140 2.248416 -0.685416
-0.326280 2.243372 -0.682971
-0.305002 2.227716 -0.671840
-0.324283 2.242549 -0.665560
1.287767 1.793899 -0.751089
-0.293439 2.227630 -0.682427
-0.272438 2.210852 -0.674351
-0.280388 2.200900 -0.659535
-0.307892 2.225915 -0.656421
-0.293204 2.210052 -0.649070
-0.305175 2.224816 -0.643234
-0.291550 2.209211 -0.638859
-0.296346 2.223472 -0.628705
-0.307382 2.230945 -0.638612
-0.309047 2.239182 -0.634695
0.074319 1.606820 0.071366
0.078351 1.621421 0.074627
-0.201090 2.116584 -0.627857
-0.203377 2.132322 -0.637221
-0.197009 2.124843 -0.634073
0.164707 1.699137 -0.558455
-0.224626 2.116485 -0.616024
0.092803 1.637703 0.066765
-0.192291 2.100285 -0.616241
-0.171518 2.100517 -0.620919
0.085139 1.637702 0.079574
-0.199530 2.091607 -0.603317
0.070799 1.620585 0.087446
-0.242937 2.131732 -0.611749
-0.231398 2.116403 -0.602711
0.060485 1.605062 0.097723
-0.236910 2.129640 -0.593386
-0.226485 2.113794 -0.582991
-0.227513 2.128528 -0.581969
0.063057 1.619762 0.100157
-0.194245 2.077839 -0.584013
-0.214829 2.097554 -0.576401
-0.200710 2.083212 -0.571014
0.075754 1.635123 0.091231
0.078652 1.642570 0.093375
-0.216506 2.112456 -0.570894
0.055665 1.618916 0.113066
0.261522 2.814676 -1.845017
-0.205563 2.111354 -0.560064
0.307957 2.789428 -1.917633
0.310526 2.790680 -1.934306
0.315171 2.788336 -1.947958
0.163830 1.727804 -0.591452
-0.260022 2.196476 -0.664444
-0.256834 2.177125 -0.647637
-0.222245 2.154750 -0.646530
-0.249243 2.148878 -0.627964
0.183294 1.700573 -0.582117
0.058396 1.633604 0.115590
-0.234874 2.169192 -0.652799
-0.243001 2.179611 -0.656758
-0.275268 2.192625 -0.622777
-0.272589 2.191861 -0.613842
-0.249672 2.145344 -0.599271
-0.263352 2.176354 -0.600191
0.287580 1.946257 0.454913
-0.268409 2.190818 -0.601788
-0.285194 2.206568 -0.626408
0.033849 1.601479 0.151021
-0.286489 2.222245 -0.615973
0.176470 1.669943 -0.570838
-0.278227 2.221144 -0.604372
-0.238639 2.146334 -0.588350
-0.232940 2.143808 -0.584606
0.033832 1.631226 0.152963
0.033882 1.646095 0.153967
-0.226203 2.186699 -0.578317
0.065035 1.663095 0.118857
-0.196022 2.218373 -0.592997
-0.183939 2.206883 -0.586847
0.053565 1.662331 0.131902
0.064663 1.676735 0.122183
-0.253951 2.174474 -0.588260
0.055288 1.691960 0.134830
-0.266616 2.205000 -0.592552
-0.267038 2.219763 -0.590053
-0.254378 2.233669 -0.580466
-0.226629 2.143273 -0.579638
-0.241092 2.188404 -0.579021
-0.226223 2.172942 -0.576824
-0.202772 2.156108 -0.559666
-0.457047 2.059944 -0.546274
-0.442984 2.070157 -0.537570
-0.480593 2.041091 -0.537245
0.045474 1.691277 0.146366
0.176323 1.670150 -0.588096
-0.458648 2.088044 -0.570370
-0.457095 2.103033 -0.571327
-0.446567 2.101884 -0.559770
-0.464591 2.099814 -0.528226
0.037424 1.705348 0.159877
-0.401468 2.036028 -0.495838
-0.389158 2.020272 -0.489161
0.055108 1.481789 0.146047
-0.395548 2.066330 -0.502676
-0.400015 2.053209 -0.496357
-0.385564 2.065118 -0.490168
0.168613 1.655178 -0.576768
-0.376883 2.034135 -0.478903
-0.363782 2.018470 -0.473610
-0.365005 2.033141 -0.469708
-0.111017 1.995181 -0.559070
0.066886 1.480342 0.161027
0.358644 2.702298 -1.965001
0.052754 1.513440 0.155433
0.354397 2.674263 -1.967029
0.351787 2.642591 -1.964168
-0.098325 1.983449 -0.552588
0.089757 1.470450 0.174370
0.367417 2.289296 -1.607083
0.377539 2.254854 -1.603559
0.397727 2.285929 -1.624362
0.102187 1.478811 0.181715
0.299691 2.294267 -1.611077
0.325457 2.287574 -1.596795
0.289550 2.286024 -1.594170
0.312123 2.282104 -1.573926
0.155528 1.640594 -0.586074
0.335402 2.282062 -1.557097
0.254800 1.960417 0.455986
0.170976 2.150832 -1.522149
0.171736 2.195790 -1.553142
0.131864 1.476454 0.191602
0.179904 2.192550 -1.514311
0.227145 2.253953 -1.548436
0.200633 2.217693 -1.500818
0.206622 2.281219 -1.508994
0.271430 2.224699 -1.569501
0.268423 2.214259 -1.565438
0.278137 2.255092 -1.577718
0.296000 2.248940 -1.549432
0.239703 2.223643 -1.546857
0.279537 2.210586 -1.524954
0.244472 2.300441 -1.573470
0.235000 2.284477 -1.558661
0.228814 2.259384 -1.550734
0.255350 2.286416 -1.533799
0.259562 2.296668 -1.530720
0.303066 2.219222 -1.509031
0.146802 1.490622 0.197200
0.318614 2.251559 -1.532322
0.128808 1.507361 0.198204
0.346229 2.824195 -1.990643
0.329476 2.247760 -1.512409
0.145891 1.505328 0.200555
0.297762 2.909554 -2.018706
0.292041 2.887806 -2.023401
0.292766 2.855322 -1.990742
0.296927 2.858913 -2.022973
0.359696 2.856189 -2.021195
0.337346 2.863360 -2.033495
0.135870 1.520237 0.203983
0.144384 1.519966 0.204955
0.359633 2.829137 -2.057382
0.300447 2.917443 -2.022505
0.296588 2.919935 -2.053071
0.309042 2.948841 -2.044060
0.292829 2.921284 -2.069136
0.295169 2.951175 -2.069708
0.101137 1.650975 0.072398
0.324449 2.858565 -2.041179
0.308260 2.857237 -2.050516
0.325972 2.855629 -2.074877
0.303686 2.865573 -2.086958
0.275400 2.953740 -2.096585
0.241789 1.961063 0.448749
0.279649 2.894358 -2.103107
0.341213 2.834481 -2.103090
0.315267 2.877178 -2.113956
0.266278 3.001917 -2.133764
0.258873 1.946789 0.447181
0.105691 1.679069 0.094030
-0.332038 1.906648 -0.391587
0.336030 2.262463 -1.523648
0.309031 3.021377 -2.206027
0.308698 2.991578 -2.207199
-0.341353 1.922340 -0.403553
0.086896 1.664118 0.099499
-0.325835 1.922171 -0.400683
0.265230 2.897683 -2.141201
0.092887 1.680002 0.102331
0.304835 2.898234 -2.150071
0.280467 2.927892 -2.167905
0.074475 1.663611 0.109557
0.289612 2.888716 -2.127858
0.103174 1.707639 0.111655
0.301854 2.930338 -2.186884
0.085696 1.707577 0.117516
0.343323 2.900487 -2.199525
0.335631 2.929807 -2.205061
0.332147 2.868805 -2.173613
0.332848 2.839012 -2.175167
0.341993 2.841085 -2.204182
0.069028 1.707252 0.126495
0.228549 2.247794 -1.551645
0.251025 2.251979 -1.530267
0.298620 3.084207 -2.241549
0.246017 1.947671 0.439699
0.293642 3.147180 -2.280480
0.271619 2.220006 -1.509868
0.260691 2.234411 -1.499782
0.329143 3.023115 -2.233959
0.333958 3.024304 -2.250479
0.334351 2.993018 -2.232958
0.035810 1.570797 0.160408
0.340104 2.996272 -2.264336
0.348215 2.965027 -2.261249
0.311325 3.052532 -2.276586
0.344041 2.966218 -2.275171
0.323611 3.028422 -2.299832
0.303940 3.059818 -2.314585
0.328192 2.998781 -2.304446
0.330831 2.968889 -2.305304
0.328460 2.992117 -2.305135
1.269838 1.781187 -0.780852
0.323971 3.001787 -2.341441
0.206910 2.250220 -1.495097
0.349863 2.948628 -2.227006
0.249511 1.935578 0.432098
0.257228 2.218924 -1.484613
0.250081 2.209962 -1.473072
0.364150 2.929632 -2.254466
0.362521 2.934317 -2.255089
0.364157 2.872026 -2.223864
0.251731 2.233670 -1.487762
0.236630 2.234071 -1.475326
0.029332 1.615312 0.166536
0.029547 1.614182 0.180841
0.247664 2.281060 -1.518894
0.241431 2.267424 -1.508622
0.250870 2.266164 -1.520499
0.027597 1.630301 0.166528
0.026420 1.645254 0.166836
0.151838 1.578332 -0.539356
0.252661 2.295789 -1.517532
0.025851 1.626034 0.183488
0.283793 3.150778 -2.323371
0.284285 3.180246 -2.318034
0.152638 1.563405 -0.539879
0.272620 3.154235 -2.364076
0.268983 3.183818 -2.359004
0.275723 3.124022 -2.360990
0.268471 3.184002 -2.361199
0.027758 1.689782 0.170522
0.277725 2.208413 -1.491755
0.317618 2.214386 -1.470623
0.020445 1.688930 0.183475
0.302074 3.097879 -2.416401
0.269019 3.156909 -2.397039
0.257446 3.187209 -2.398777
0.258634 3.185081 -2.401125
0.018698 1.657820 0.199378
0.017168 1.672933 0.197742
0.275067 3.126756 -2.395562
0.015868 1.672185 0.207638
0.262660 2.193331 -1.466976
0.275528 2.189337 -1.459885
0.013251 1.679482 0.213122
0.011113 1.686869 0.212385
-0.085749 1.972321 -0.546585
0.006760 1.702036 0.210892
-0.117702 1.988582 -0.548530
1.354378 1.956229 -0.751241
0.348262 2.276272 -1.487207
1.345762 1.926204 -0.747136
1.358266 1.941437 -0.754379
0.159207 1.623799 -0.549352
1.372191 1.956419 -0.758833
1.390209 1.956846 -0.769494
1.394633 1.971539 -0.767505
0.331852 2.228729 -1.460484
0.340994 2.243667 -1.450700
1.366912 1.927327 -0.767553
0.307272 3.062404 -2.347006
0.293377 3.081159 -2.353714
0.325268 2.214018 -1.449314
0.635901 1.276789 -0.267249
0.624638 1.249617 -0.250613
0.336131 2.226533 -1.441307
0.007581 1.689049 0.227698
0.003120 1.700936 0.225929
0.310218 3.068892 -2.379273
0.324865 3.034162 -2.373183
0.317985 3.066240 -2.398892
0.002264 1.699930 0.238979
0.049333 1.525559 0.161438
0.061284 1.509762 0.168742
0.058060 1.525874 0.176344
0.343980 2.259887 -1.467710
0.345597 2.274650 -1.465819
0.076173 1.479491 0.169143
0.074730 1.494137 0.173430
0.343143 2.258598 -1.451086
0.342392 2.273338 -1.448202
-0.125734 1.988034 -0.533840
0.072921 1.508740 0.178357
-0.104827 1.956698 -0.523681
0.084714 1.522547 0.189461
-0.109559 1.954837 -0.506919
0.329962 2.793415 -1.967764
0.350910 2.794601 -1.995880
0.055932 1.538769 0.181633
0.346970 2.732456 -2.004005
0.341233 2.705785 -2.004276
0.054321 1.553396 0.186212
0.355118 2.795800 -2.012350
0.037754 1.570125 0.168384
0.357372 2.796854 -2.026416
0.348430 2.775827 -2.065575
0.155321 1.625405 -0.568655
0.042608 1.569220 0.178492
0.330239 2.708793 -2.039340
0.151934 1.610761 -0.571551
0.334853 2.741571 -2.077285
0.050501 1.580451 0.194027
0.324140 2.712548 -2.085310
0.152205 1.594574 -0.555891
0.332677 2.644412 -1.981774
0.068691 1.537876 0.189283
-0.123666 1.985763 -0.507616
0.342221 2.773510 -2.105356
0.344182 2.803976 -2.113139
-0.114206 1.985317 -0.492941
0.334703 2.806452 -2.141867
-0.115031 1.999293 -0.492065
0.017523 1.878119 -0.510494
-0.009783 1.879869 -0.507760
0.007626 1.878297 -0.509874
0.001282 1.865019 -0.500262
0.612174 1.306643 -0.259783
-0.024015 1.878230 -0.499844
-0.024989 1.867072 -0.483943
-0.036064 1.879224 -0.489475
0.001986 1.846732 -0.487054
-0.011511 1.847621 -0.477519
-0.004930 1.855630 -0.490422
0.061325 1.581464 0.207459
-0.021078 1.861814 -0.482054
-0.123344 1.863330 -0.471634
-0.119397 1.859614 -0.469622
-0.116497 1.878193 -0.472528
-0.089707 1.846931 -0.462974
-0.089940 1.832093 -0.464327
-0.076610 1.816455 -0.459437
-0.096327 1.873643 -0.455521
0.102113 1.492565 0.185468
1.340119 2.040940 -0.873786
1.321938 2.041167 -0.871393
1.330016 2.070394 -0.865190
1.335796 2.085188 -0.864898
0.256766 1.796800 -1.066654
0.263912 1.793577 -1.062783
0.256405 1.787162 -1.050305
0.245010 1.797515 -1.056137
0.234573 1.795467 -1.040616
0.250620 1.781109 -1.036819
0.240249 1.778925 -1.022410
0.228538 1.794293 -1.031384
0.272752 1.794964 -1.047949
0.269354 1.786750 -1.042933
0.274992 1.794227 -1.039222
0.269317 1.762590 -1.015477
0.265662 1.779339 -1.037302
0.128390 1.520488 0.202966
0.273603 1.780303 -1.022926
0.272487 1.761960 -1.008393
0.279201 1.792598 -1.019735
0.276595 1.776556 -1.005089
0.280895 1.790367 -1.002334
0.093560 1.550827 0.207483
0.108143 1.550143 0.211942
0.104213 1.568577 0.221065
0.126254 1.535054 0.208464
0.206653 1.787582 -0.992764
0.121519 1.550979 0.214451
0.199208 1.783863 -0.980074
0.185879 1.792382 -0.984560
0.263412 1.731027 -0.978553
0.257042 1.724166 -0.968133
0.263658 1.713903 -0.965026
0.272874 1.713849 -0.967022
0.269586 1.705990 -0.962158
0.243063 1.728819 -0.958627
0.250466 1.715010 -0.955304
0.140851 1.549183 0.214659
0.259350 1.748101 -0.999621
0.246310 1.761927 -1.006165
0.238600 1.760765 -0.993458
0.275299 1.760919 -0.995966
0.271880 1.746337 -0.991669
0.280463 1.759154 -0.975022
0.283974 1.789422 -0.980739
0.281774 1.774115 -0.975554
0.101652 1.579020 0.226825
0.038300 1.597870 0.188006
0.243989 1.744292 -0.974272
0.220627 1.760077 -0.969396
0.224477 1.755421 -0.967502
0.233160 1.744359 -0.963266
0.222573 1.991882 0.456309
0.151788 1.626801 -0.585381
0.034571 1.612730 0.197842
0.047438 1.597038 0.203543
0.170005 2.033731 -1.392881
0.187814 2.064965 -1.415032
0.162177 2.063549 -1.389580
0.230308 2.060755 -1.373841
0.240614 2.061405 -1.385098
0.042563 1.611290 0.213837
0.093632 2.034016 -1.333372
0.071680 2.063087 -1.357440
0.065715 2.053800 -1.348024
0.086291 2.030427 -1.326572
0.032200 1.619432 0.202821
0.192917 2.059242 -1.343741
0.206160 2.060841 -1.351966
0.231670 2.034596 -1.340404
0.023914 1.638271 0.217910
0.211447 2.038812 -1.334494
-0.019412 1.846182 -0.464940
-0.025962 1.846669 -0.451463
0.167412 2.061262 -1.340993
0.183013 2.059364 -1.342422
0.178466 2.051872 -1.335293
0.150877 1.611640 -0.582419
0.056804 1.595677 0.215459
0.191277 2.042728 -1.329255
-0.033296 1.859949 -0.454782
0.069817 1.592578 0.224063
0.183721 2.036809 -1.316090
0.209304 2.022103 -1.302438
0.051721 1.613107 0.228161
0.163679 2.048962 -1.309556
0.155907 2.055949 -1.295364
0.063655 1.616736 0.237805
0.164498 2.040906 -1.292428
0.168951 2.034623 -1.290297
0.201858 2.018372 -1.289749
0.015483 1.671702 0.213886
0.179782 2.023340 -1.284849
0.194420 2.014952 -1.277035
0.137583 1.592973 0.229072
0.129649 1.607790 0.240148
0.155017 2.055073 -1.279728
0.084391 1.592945 0.231219
0.169323 2.024363 -1.273569
0.163026 2.023443 -1.260040
0.179418 2.002642 -1.252038
0.096537 1.599324 0.238261
0.094618 1.607834 0.242658
0.179211 2.163241 -1.477786
0.166370 2.133203 -1.516122
0.188219 2.190240 -1.487353
0.076937 1.622698 0.245856
0.173059 2.129255 -1.467865
0.091607 1.622300 0.249688
0.089865 1.629519 0.253619
-0.023439 1.941048 -0.538406
-0.025507 1.926654 -0.530900
0.087545 2.127467 -1.434251
0.086462 2.158345 -1.432440
0.153880 1.584784 -0.590239
0.142667 2.185647 -1.415724
0.146578 2.184565 -1.414578
0.127809 2.185303 -1.407048
0.149050 2.215364 -1.415276
0.179195 2.157473 -1.448266
0.194247 2.186095 -1.437954
0.219731 2.169825 -1.422717
0.275134 2.122111 -1.406660
0.269472 2.093032 -1.400131
0.262395 2.122118 -1.403047
0.272484 2.185767 -1.454940
0.125731 1.621502 0.249930
0.117785 1.621531 0.251859
-0.060453 1.941481 -0.533779
-0.047855 1.925902 -0.527139
0.237063 2.188147 -1.447566
0.270948 2.167658 -1.429549
0.290836 2.168347 -1.428858
0.287305 2.153331 -1.420726
0.240131 2.169875 -1.427713
0.256973 2.169175 -1.429554
-0.035238 1.910149 -0.521087
0.107247 1.621737 0.252299
0.201996 2.022879 0.446619
0.245220 2.153147 -1.410305
0.102711 1.636721 0.260641
0.115492 1.650907 0.269080
0.029344 1.637665 0.237633
0.047481 1.624307 0.236972
0.257766 2.136631 -1.405104
0.150609 1.612195 -0.589402
0.061694 1.623581 0.242078
0.056994 1.637587 0.252643
0.189553 2.124339 -1.410145
0.179373 2.122336 -1.381716
0.183728 2.155386 -1.423051
0.189525 2.155677 -1.408104
0.150271 1.628593 -0.607725
0.200134 2.168667 -1.420146
0.018404 1.655411 0.231536
0.212237 2.164326 -1.411748
0.014196 1.670444 0.230257
0.014449 1.669664 0.240104
0.192154 2.150555 -1.377962
0.016701 1.668930 0.248776
0.248406 2.092420 -1.401543
0.231818 2.076871 -1.389110
0.228766 2.091804 -1.388005
0.244547 2.107104 -1.397041
0.244836 2.121957 -1.395902
0.254358 2.122084 -1.400279
0.229173 2.106559 -1.385652
0.218349 2.121053 -1.376719
0.205337 2.105712 -1.367971
0.036841 1.652859 0.259134
0.051390 1.652020 0.263635
0.227034 2.154917 -1.403911
0.225827 2.136766 -1.388603
0.018887 1.682626 0.264079
0.017335 1.690285 0.267727
0.033697 1.667158 0.266380
0.225916 1.977343 0.448419
0.202386 2.132978 -1.369030
0.027708 1.696092 0.280385
0.041001 1.695261 0.287102
-0.081394 1.941985 -0.525528
-0.069170 1.926506 -0.518054
0.072321 1.637254 0.255222
0.200498 2.218217 -1.466485
-0.076678 1.923741 -0.509759
-0.056535 1.910797 -0.511963
-0.040985 1.896239 -0.508358
0.087785 1.636672 0.258140
-0.064147 1.907942 -0.503636
0.209727 2.222457 -1.460934
0.222420 2.210806 -1.454446
0.221560 2.217042 -1.457654
0.226562 2.232678 -1.467832
0.230141 2.226604 -1.466186
0.062509 1.664087 0.275720
0.156879 1.583372 -0.604898
0.207844 2.217399 -1.458214
0.073457 1.665915 0.280495
0.214633 2.192117 -1.442933
0.173811 2.276818 -1.443512
0.170073 2.265580 -1.446386
0.104218 1.664375 0.281294
0.177429 2.243529 -1.401460
0.192307 2.239954 -1.366795
0.109358 1.670459 0.284630
0.154614 2.233277 -1.422961
0.089698 1.677592 0.291451
0.182388 2.271049 -1.405022
0.195760 2.266451 -1.365581
0.058779 1.680133 0.284208
0.058613 2.130263 -1.447455
0.059867 2.133790 -1.449247
0.104995 2.096427 -1.408634
0.087903 2.096930 -1.412293
0.095780 2.081122 -1.397806
0.094730 2.112525 -1.422481
0.077765 2.104883 -1.423729
0.090654 2.101797 -1.416567
0.106791 2.111552 -1.413609
0.106466 2.126325 -1.411279
0.122240 2.095138 -1.399472
0.073325 1.679445 0.288731
0.161510 1.550624 -0.570024
0.114453 2.124884 -1.395275
0.095615 2.142248 -1.420508
0.040274 -0.737883 0.241147
0.084275 2.172926 -1.427121
0.087651 2.171793 -1.413691
0.085758 2.187907 -1.427954
0.092534 2.184155 -1.410090
0.095237 2.186154 -1.408414
0.097783 2.170740 -1.390783
0.205001 2.009884 0.429360
0.040812 -0.723011 0.241967
0.123847 2.175217 -1.375597
0.106057 2.153543 -1.377059
0.116010 2.137768 -1.365540
0.112541 2.152377 -1.364128
1.335373 1.867272 -0.755137
1.343054 1.882972 -0.766906
0.137094 2.094007 -1.375943
0.166002 1.552238 -0.585615
0.182086 2.103597 -1.365788
0.141245 2.091472 -1.354543
0.129532 2.107865 -1.360677
1.337788 1.870040 -0.769687
1.354763 1.898400 -0.776392
1.368248 1.911558 -0.785012
0.154218 2.076713 -1.347518
0.159037 1.567008 -0.587551
1.361398 1.899298 -0.789731
0.143586 2.088048 -1.332102
1.346901 1.882552 -0.781924
0.165044 2.180103 -1.351738
0.013059 -0.721481 0.230575
0.000301 -0.705777 0.224684
0.199997 2.024359 0.428386
0.129761 2.153803 -1.339246
0.170531 2.178514 -1.333116
0.200674 2.074936 -1.355467
0.194119 2.090159 -1.358480
0.186158 2.066371 -1.347135
0.013024 -0.706674 0.232398
0.198749 2.105604 -1.364678
0.026761 -0.737077 0.234816
1.342306 1.870202 -0.804492
0.160330 1.574496 -0.603509
1.405345 1.972044 -0.777037
0.172654 1.552336 -0.597920
1.413558 1.972835 -0.789481
1.395297 1.942976 -0.784685
1.387128 1.930134 -0.790195
1.402899 1.943808 -0.797475
1.393965 1.931608 -0.803380
1.418608 1.973839 -0.803717
1.412240 1.958660 -0.798944
0.151311 2.071540 -1.297954
0.148874 2.086577 -1.298360
0.153715 2.115796 -1.291108
0.153076 2.100360 -1.284742
0.156575 2.099586 -1.275918
0.160096 2.098808 -1.267046
0.167577 2.101015 -1.252351
0.171136 2.144543 -1.281517
0.169140 2.174448 -1.281016
0.027119 -0.707414 0.237711
0.167828 2.129318 -1.277056
0.169641 2.159148 -1.276707
0.162193 2.171685 -1.258184
0.053906 1.720985 0.146348
0.170566 2.128389 -1.266035
0.172172 2.127459 -1.254677
0.167591 2.158335 -1.265770
0.200628 2.029104 0.411870
0.043294 1.737582 0.165346
-0.052728 1.956860 -0.545724
-0.044902 1.972803 -0.557519
0.150859 2.223103 -1.357022
0.182944 2.239446 -1.351147
0.140657 2.209685 -1.340624
1.393368 1.931203 -0.824522
0.148170 2.238043 -1.323202
0.134398 1.736624 0.114208
0.164405 2.267812 -1.316393
0.140663 1.768228 0.120112
0.124002 1.735981 0.125414
0.152073 2.235902 -1.297117
0.128400 1.750557 0.128883
-0.073018 1.957126 -0.539947
0.129793 1.765336 0.130649
0.117267 1.764835 0.140648
0.129469 1.780230 0.131441
0.206208 2.010412 0.413832
0.170586 2.233312 -1.269554
0.196553 2.231577 -1.255039
-0.056858 1.989256 -0.561920
0.214947 1.980077 0.416835
0.254843 2.041512 -1.343897
0.265132 2.057453 -1.336821
0.297900 2.039981 -1.319396
0.303825 2.034539 -1.316368
0.306285 2.054654 -1.318316
0.291400 2.055407 -1.322071
0.177562 1.765468 0.115101
0.197663 1.763060 0.139885
-0.019560 1.950557 -0.544118
0.269448 1.669936 -0.603654
0.284522 1.910969 -1.266751
0.290690 1.932017 -1.275128
0.287462 1.901450 -1.265696
0.246372 1.934017 -1.257245
0.232745 1.870836 -1.240723
0.263677 1.870618 -1.246933
0.159475 1.822635 0.153802
0.228720 1.699920 -0.588372
0.178710 1.806625 0.178496
0.167835 1.820917 0.173219
0.269715 1.966172 -1.323154
0.272254 1.980874 -1.320740
0.285355 1.995365 -1.318711
0.200029 1.731055 -0.594390
0.255396 1.995538 -1.312222
0.217544 1.937767 -1.327001
0.222229 1.943445 -1.334589
0.249279 1.979733 -1.299565
0.245316 1.994873 -1.300836
0.240302 1.978994 -1.287555
0.235076 1.995224 -1.289475
0.061152 1.721310 0.140106
0.236963 2.021195 -1.321070
0.262715 2.041914 -1.333766
0.272786 2.011091 -1.324933
0.286233 2.010277 -1.318485
0.105806 1.764431 0.149113
0.274251 2.040881 -1.323974
0.276094 2.055903 -1.325438
0.229561 2.019362 -1.308231
0.237342 2.010283 -1.304381
0.090972 1.763918 0.159940
0.297781 1.992681 -1.288192
0.325690 1.934126 -1.276086
0.281419 1.961349 -1.265219
0.288568 1.988985 -1.264610
0.297500 2.009212 -1.308222
0.047485 1.749288 0.168509
0.301314 2.008660 -1.302313
0.078433 1.764253 0.168756
0.309747 2.021602 -1.298090
0.301446 2.007300 -1.285148
0.105680 1.776964 0.152734
0.307825 2.021749 -1.280546
0.108373 1.793836 0.154656
0.315183 2.040945 -1.275082
0.211782 1.725733 -0.615754
0.296786 2.006276 -1.270680
0.302074 2.020792 -1.266706
0.292313 2.005233 -1.256116
0.308027 2.035071 -1.262846
0.096944 1.778389 0.164301
0.098680 1.784120 0.165669
0.300139 2.027388 -1.250191
0.302438 2.034296 -1.248424
0.306970 2.048863 -1.244879
0.240600 1.946538 -1.255137
0.233587 1.978101 -1.274262
0.227954 1.977136 -1.260355
0.221025 1.994517 -1.263175
0.070720 1.771871 0.183266
0.233776 1.945653 -1.241906
0.229793 1.938599 -1.227457
0.221422 1.976232 -1.246959
0.091321 1.784194 0.178657
0.212015 1.975521 -1.235193
0.217095 1.730537 -0.629591
0.208355 2.009044 -1.269461
0.076426 1.777082 0.186868
0.201538 2.006652 -1.260314
0.192240 1.996612 -1.245108
0.172645 1.819432 0.190716
0.277546 1.973793 -1.232240
0.284204 1.989562 -1.244589
0.284879 1.987054 -1.228073
0.121984 1.853754 0.149175
0.128199 1.864672 0.153443
0.240535 1.927269 -1.222063
0.232630 1.963509 0.442462
0.153509 1.838022 0.166156
-0.009161 1.909664 -0.523671
-0.016816 1.909828 -0.523537
-0.022676 1.894502 -0.514624
0.258902 1.926814 -1.213080
0.275112 1.960128 -1.216315
0.270204 1.940218 -1.204261
0.282218 1.955824 -1.196451
0.105416 1.837309 0.173007
0.290391 1.984776 -1.207803
0.122495 1.882349 0.165606
0.095206 1.882615 0.170145
0.289992 2.003843 -1.237766
0.292413 2.011395 -1.238467
0.095276 1.836648 0.184357
0.291040 2.002629 -1.222638
0.883662 1.462978 -0.440020
0.297708 2.033270 -1.234006
0.300958 2.047924 -1.231188
0.295827 2.046925 -1.216997
0.292325 2.001544 -1.209221
0.291716 2.016207 -1.205401
0.290665 2.045787 -1.201030
0.092739 1.846296 0.183541
-0.012318 1.925156 -0.529648
0.003171 1.924576 -0.526775
0.004096 1.939147 -0.531952
0.856716 1.452694 -0.454239
0.293619 1.984893 -1.187953
0.290286 2.014863 -1.187891
0.075775 1.866363 0.192353
0.290638 2.121871 -1.403772
0.298023 2.118940 -1.383940
0.300228 2.152256 -1.417074
0.310518 2.153530 -1.407054
0.306694 2.173934 -1.425901
0.315017 2.166407 -1.411215
0.148179 1.850960 0.177096
0.295801 2.136937 -1.411087
0.304663 2.134053 -1.396799
0.289886 1.641965 -0.628187
0.140598 1.879555 0.195880
0.010485 1.886064 -0.513994
0.294027 1.643900 -0.654004
0.259052 1.703280 -0.641782
0.150955 1.880485 0.236234
0.029560 1.719406 0.173495
0.248466 1.720566 -0.681073
0.022397 1.733417 0.187509
0.036971 1.748965 0.179201
0.026644 1.748003 0.190892
0.029468 1.759946 0.194970
0.011568 1.717929 0.197494
0.299714 2.116912 -1.347689
0.300278 2.115356 -1.330434
0.005412 1.731872 0.212080
0.016841 1.747319 0.202435
-0.099343 1.940110 -0.504448
-0.083010 1.918568 -0.496530
0.007546 1.746601 0.214265
0.312827 2.145774 -1.338304
0.317215 2.175224 -1.333864
-0.102297 1.940134 -0.489554
0.305833 2.173301 -1.306118
0.012407 1.776019 0.218972
0.015691 1.790198 0.222084
0.334206 2.238949 -1.388729
0.326165 2.192439 -1.365278
0.325792 2.209589 -1.363127
0.314864 2.286577 -1.396656
0.299736 2.266612 -1.373702
-0.093502 1.923499 -0.485013
-0.000257 1.716037 0.224990
-0.000936 1.730955 0.225581
0.284076 2.236523 -1.349453
0.258913 2.235956 -1.328816
0.269097 2.216305 -1.324286
0.294502 2.193821 -1.311245
0.253726 2.266051 -1.329805
-0.000221 1.745780 0.226961
0.001076 1.760565 0.228673
-0.075627 1.908766 -0.492954
-0.070419 1.902474 -0.490391
-0.059170 1.891547 -0.484681
-0.083412 1.907946 -0.480268
-0.005007 1.728765 0.254610
-0.105841 1.885730 -0.460164
-0.093344 1.922927 -0.477784
-0.007917 1.742763 0.257231
-0.076509 1.906025 -0.457851
-0.083224 1.906920 -0.467275
-0.074386 1.921855 -0.456830
-0.110168 1.969241 -0.491534
0.006763 1.789927 0.233848
-0.103754 1.968523 -0.484263
-0.092268 1.967484 -0.474384
-0.091700 1.982360 -0.473616
-0.091044 1.997246 -0.473003
-0.068159 1.950724 -0.458375
-0.077714 1.996418 -0.466352
-0.060181 1.997000 -0.460792
-0.001598 1.789146 0.246207
0.008584 1.797474 0.235384
0.001668 1.805179 0.247808
0.315483 2.068163 -1.302669
0.312919 2.082680 -1.296420
0.318679 2.080509 -1.270490
-0.016320 1.772577 0.271085
-0.055960 1.934956 -0.451506
-0.041582 1.934249 -0.446689
0.311382 2.063438 -1.241402
0.309554 2.077762 -1.232913
0.288921 2.109601 -1.250808
0.297753 2.141411 -1.278450
0.288975 2.171748 -1.281476
0.271182 2.140513 -1.259315
0.265504 2.168770 -1.264613
0.256579 2.140171 -1.250735
0.242538 2.139754 -1.241355
0.217670 2.138741 -1.221254
0.231628 2.108191 -1.209578
0.000996 1.818475 0.252714
-0.007682 1.817957 0.261809
0.296687 2.076612 -1.214559
0.262917 2.080024 -1.199254
0.284204 2.051362 -1.188971
0.254343 2.214798 -1.298440
0.237035 2.226505 -1.273184
0.225329 2.262586 -1.277506
0.207950 2.231323 -1.255111
0.223525 2.202654 -1.243075
-0.005059 1.846790 0.265396
-0.030787 1.918320 -0.437361
-0.033127 1.910183 -0.434202
0.078657 2.099926 0.450376
-0.027170 1.933546 -0.441929
-0.010757 1.863266 0.276834
0.171958 1.992128 -1.238757
0.156653 1.988009 -1.214441
0.159552 2.022342 -1.244913
0.157988 2.037148 -1.242752
0.296844 1.579546 -0.596885
0.159891 2.054831 -1.242181
0.050687 1.775529 0.190251
0.067492 1.777073 0.189580
0.065340 1.791151 0.201285
0.160074 2.035825 -1.226538
0.163689 2.050302 -1.221575
0.043600 1.791865 0.202926
0.161661 2.035028 -1.216867
0.094008 2.014807 -1.130204
0.095343 2.014557 -1.127414
0.093105 2.013608 -1.128755
0.102208 2.030560 -1.142794
0.100778 2.027290 -1.140661
0.048966 2.099999 0.438754
0.105357 2.045732 -1.146544
0.108392 2.028912 -1.123636
0.162540 2.066888 -1.242059
0.164706 2.082169 -1.246894
0.168504 2.080808 -1.230696
0.164995 2.155982 -1.235101
0.193270 -0.741323 0.240470
0.300231 1.549341 -0.593976
0.170560 2.154538 -1.218351
0.173570 2.169694 -1.221859
0.099306 2.108906 -1.187712
0.115787 2.108532 -1.187737
0.111537 2.098975 -1.181376
0.152808 2.107509 -1.185480
0.100573 2.077163 -1.164630
0.122039 2.068537 -1.142995
0.123591 2.136507 -1.137650
-0.031817 1.994614 -0.456734
0.027491 1.791220 0.211400
0.039345 1.805821 0.212382
0.033039 1.805719 0.215520
0.233507 1.926632 -1.208932
0.253086 1.900796 -1.182251
0.269848 1.910097 -1.180448
0.020221 1.805238 0.225353
0.212954 1.926805 -1.186287
0.220267 1.920903 -1.182497
0.033873 1.820004 0.223721
0.025429 1.819760 0.229281
0.212786 1.915637 -1.169928
0.199620 1.926135 -1.177874
0.217809 1.910260 -1.167411
0.220429 1.522656 -0.589758
0.000421 1.713301 0.259573
0.245072 1.894415 -1.171660
0.256994 1.880548 -1.161290
0.002650 1.712742 0.266038
-0.001391 1.727559 0.275852
0.011174 1.713492 0.281354
0.093122 2.068113 0.473320
0.179695 1.926285 -1.171421
0.192531 1.918449 -1.164129
0.172263 1.920705 -1.158373
0.185484 1.910086 -1.150177
0.164838 1.917908 -1.145611
0.173372 1.909222 -1.141304
0.177504 1.905059 -1.139217
0.164493 1.908475 -1.129239
0.205593 1.531800 -0.597636
0.223324 1.861236 -1.115911
0.021611 1.710278 0.288855
0.209663 1.862555 -1.106442
0.219598 1.845611 -1.098376
0.210382 1.887497 -1.138772
0.205354 1.909273 -1.158235
0.037047 1.709060 0.297583
0.013845 1.819196 0.239814
0.245138 1.864085 -1.137637
0.050236 1.711305 0.302981
0.202893 1.881853 -1.126233
-0.053908 1.950003 -0.453336
0.177683 1.892713 -1.122736
0.182702 1.887497 -1.120211
0.062692 1.722341 0.313048
0.082011 1.705887 0.306816
0.194676 1.539075 -0.603396
-0.269509 1.819924 -0.454867
-0.252342 1.819858 -0.451692
0.092633 1.708391 0.311161
-0.231396 1.802143 -0.434257
-0.275628 1.814287 -0.441545
-0.255752 1.803352 -0.430906
0.077800 1.722034 0.316165
0.195612 1.876611 -1.114179
0.227443 1.523683 -0.602871
0.088943 1.736250 0.328463
0.073686 1.835413 0.206317
0.070674 1.850489 0.205585
0.207729 1.877160 -1.123777
0.184513 1.980555 -1.233388
0.199844 1.975452 -1.230775
0.197228 1.969883 -1.226823
0.062079 1.834851 0.216836
0.182092 1.975772 -1.229688
0.176835 1.966653 -1.221498
0.209803 1.953064 -1.220741
0.216443 1.944132 -1.217533
0.200320 1.546082 -0.616899
0.214987 1.934873 -1.201785
0.169288 1.959273 -1.210088
0.181997 1.947542 -1.202615
0.061695 1.879495 0.219545
0.029631 1.831749 0.233729
0.160712 1.956610 -1.196994
0.159651 1.975017 -1.213580
0.051207 1.838036 0.225552
-0.250314 1.879335 -0.448196
-0.247494 1.863631 -0.439421
0.043318 1.862589 0.242513
-0.229797 1.847353 -0.427664
0.194755 1.938701 -1.195906
0.054262 1.863779 0.231455
0.207534 1.930827 -1.189121
-0.201377 1.786656 -0.424485
0.046873 1.877805 0.245342
-0.211019 1.816553 -0.421669
-0.190533 1.785427 -0.412005
-0.224648 1.776740 -0.414880
-0.219520 1.771163 -0.412315
-0.211977 1.764110 -0.408468
0.061556 1.894378 0.220443
0.192938 -0.756286 0.240732
1.361149 1.892033 -0.807538
0.156773 2.003612 -1.196161
0.162786 2.018716 -1.191039
0.163663 2.034238 -1.207403
0.169154 2.048592 -1.201429
0.169439 2.032504 -1.187029
0.175011 2.046868 -1.181210
0.277518 1.940600 -1.190349
0.057060 1.908209 0.235969
0.048942 1.892538 0.247491
0.270119 2.043173 -1.165525
0.050199 1.907326 0.249179
0.162226 1.942408 -1.179872
0.052247 1.922061 0.251316
0.057845 1.935985 0.256029
0.154677 1.958072 -1.183342
0.152731 1.956576 -1.167180
0.154948 1.989096 -1.180630
1.377731 1.914880 -0.834068
0.153323 1.971409 -1.165869
0.142172 1.904799 0.254618
0.111511 1.932845 0.251509
0.137180 1.932924 0.266768
0.151834 1.955206 -1.149489
0.152902 1.962703 -1.149492
0.017941 1.833792 0.243112
0.022697 1.848194 0.246826
0.165738 1.985472 -1.140064
0.005186 1.833308 0.252980
0.008025 1.847989 0.255565
0.170484 1.983681 -1.118931
0.028354 1.862836 0.250967
0.164997 2.001073 -1.166263
0.019002 1.862730 0.255030
