ply
format ascii 1.0
comment VCGLIB generated
element vertex 1715
property float x
property float y
property float z
element face 0
property list uchar int vertex_indices
end_header
1.218113 2.350073 0.346107
1.181753 2.328034 0.295036
1.207928 2.352804 0.334144
1.200378 2.381350 0.345256
1.168571 2.370170 0.356372
1.255617 2.419225 0.372388
1.248981 2.447870 0.383816
1.248230 2.447181 0.384898
0.211573 1.890120 0.028436
1.225325 2.410568 0.373830
1.232844 2.430492 0.412755
0.253444 1.892339 0.058887
1.246281 2.455635 0.456206
1.241570 2.473706 0.479489
1.230612 2.463450 0.495731
0.262886 1.857147 0.077318
0.256000 1.823658 0.080603
0.269382 1.842501 0.086587
1.201982 2.393130 0.469368
1.171882 2.367775 0.462169
0.218067 2.084714 -0.044953
1.171272 2.370501 0.430396
1.197528 2.392396 0.366385
1.196047 2.398550 0.403556
1.169700 2.374937 0.396654
1.181734 2.387028 0.400358
1.130399 2.278493 0.452911
1.126352 2.292887 0.401449
1.126456 2.292775 0.419099
1.125914 2.295093 0.436829
1.138664 2.319536 0.445667
1.141336 2.333333 0.416785
1.124350 2.304633 0.389227
1.118879 2.320219 0.354127
1.132349 2.331577 0.399894
1.130405 2.338859 0.398220
1.133890 2.344434 0.387946
1.112576 2.344245 0.375939
1.118671 2.199599 0.423901
1.114932 2.213740 0.429769
1.109683 2.233499 0.431930
1.111870 2.269264 0.393160
1.094122 2.218100 0.408016
1.087989 2.229553 0.379171
1.113396 2.247553 0.315016
1.107965 2.238048 0.311636
1.102390 2.256236 0.319587
1.099685 2.270217 0.378333
1.099941 2.268416 0.325399
1.096553 2.281505 0.348034
1.075246 2.239156 0.350316
1.084458 2.249876 0.332270
1.121408 2.285084 0.433127
1.121222 2.283188 0.397951
1.114381 2.286995 0.382591
1.095446 2.286115 0.376467
1.091646 2.300481 0.381802
1.103957 2.315679 0.394695
1.100570 2.328545 0.403582
1.083832 2.329958 0.390705
1.084188 2.301347 0.375542
1.164651 2.269614 0.283960
1.154709 2.312650 0.304467
1.156595 2.272133 0.285964
1.148706 2.268370 0.289670
1.130542 2.275572 0.302437
1.124224 2.299659 0.324108
1.117826 2.345860 0.218436
1.113730 2.338050 0.233062
1.113592 2.338745 0.269498
1.110477 2.350646 0.282092
1.115544 2.347099 0.253622
1.118908 2.354536 0.239173
1.101443 2.384571 0.280470
1.115770 2.391950 0.272541
1.123919 2.407203 0.243636
1.096298 2.281655 0.297018
1.106112 2.302808 0.270412
1.090526 2.303337 0.296347
1.089475 2.246062 0.298385
1.100032 2.257080 0.286203
1.073786 2.243814 0.301280
1.066685 2.270406 0.295721
1.058802 2.299864 0.285516
1.114757 2.300251 0.199529
1.114712 2.315170 0.205835
1.107040 2.305592 0.222498
1.110594 2.330851 0.247336
1.109713 2.322229 0.226599
1.086764 2.317420 0.293120
1.111998 2.333071 0.282508
1.067766 2.327428 0.285283
1.060654 2.319407 0.282724
1.059630 2.339145 0.277825
1.041934 2.365007 0.235374
1.092183 2.419308 0.276927
1.118940 2.437110 0.253245
1.104592 2.451947 0.264790
1.082219 2.456640 0.270181
1.059335 2.434806 0.262828
1.068082 2.448469 0.267579
1.259639 2.446852 0.588528
1.253980 2.460277 0.594857
1.257935 2.475426 0.602984
1.254237 2.489419 0.609206
1.251821 2.474633 0.601173
0.226723 2.049736 -0.044152
1.245410 2.460999 0.588268
0.229880 2.073314 -0.051106
1.241596 2.475414 0.593486
1.232147 2.467551 0.566079
0.236350 2.077258 -0.056036
1.229975 2.473514 0.551653
1.221527 2.494856 0.578140
1.231366 2.488816 0.557954
1.219498 2.496712 0.562673
1.204509 2.491968 0.574593
1.204482 2.491878 0.562383
1.205111 2.489225 0.543991
1.228794 2.524016 0.624718
1.223178 2.511801 0.620213
1.206109 2.484972 0.512460
1.204104 2.492234 0.495269
0.238779 2.068156 -0.054323
0.241244 2.058931 -0.051997
0.245604 2.042641 -0.046036
1.074267 2.224055 0.344052
1.056936 2.260542 0.292691
1.025088 2.247596 0.256540
1.029406 2.266299 0.263937
1.032267 2.276891 0.200609
1.029430 2.286675 0.218991
1.031795 2.309881 0.247669
1.028108 2.291986 0.240540
1.036103 2.323539 0.218539
1.023989 2.256469 0.243217
1.022982 2.249992 0.240598
1.024649 2.263188 0.228779
1.026041 2.271946 0.249516
1.140655 2.495702 0.175874
1.141698 2.504367 0.196611
1.139510 2.485237 0.198294
1.142490 2.511120 0.182173
1.140294 2.523620 0.153311
1.129110 2.521850 0.221677
1.140554 2.518993 0.202923
1.142131 2.525955 0.188481
1.134640 2.532350 0.209254
1.137921 2.539765 0.194806
1.140917 2.553647 0.165922
1.142338 2.534788 0.171334
1.118430 2.567088 0.210159
1.136491 2.567399 0.172247
1.136755 2.529221 0.138891
1.126649 2.533036 0.124354
1.139496 2.574741 0.157799
1.140118 2.596380 0.149668
1.137992 2.587426 0.128935
1.127853 2.591182 0.113937
1.140881 2.602054 0.136337
1.138802 2.608009 0.124415
1.125522 2.609487 0.105311
1.105726 2.613733 0.088896
1.121134 2.613983 0.099759
1.117979 2.320735 0.173408
1.117359 2.335501 0.162519
1.112200 2.340532 0.149755
1.120478 2.338178 0.197683
1.122096 2.353538 0.203982
1.124852 2.358064 0.190078
1.126058 2.367677 0.175095
1.121870 2.351632 0.168806
1.116697 2.356798 0.154393
1.106546 2.360758 0.141381
1.113559 2.377436 0.146278
1.129257 2.400995 0.181945
1.129898 2.402595 0.172198
1.127313 2.427733 0.200316
1.131211 2.435313 0.185864
1.125631 2.375952 0.195839
1.122564 2.366423 0.210962
1.127699 2.389587 0.166960
0.237618 2.010361 -0.027605
0.251082 2.022168 -0.038999
1.127158 2.410823 0.157952
1.131667 2.427046 0.165121
1.123122 2.423506 0.147424
1.133847 2.443299 0.171732
0.259791 2.054138 -0.062696
1.125942 2.453537 0.142582
1.117149 2.384719 0.148936
1.121259 2.394415 0.152551
1.113985 2.396525 0.143656
1.118675 2.415200 0.144434
1.108547 2.416820 0.134953
1.093081 2.413561 0.127270
1.117488 2.307521 0.185082
1.116312 2.313750 0.170652
1.101265 2.322765 0.141687
1.084692 2.339101 0.132630
1.087754 2.376093 0.130947
1.074721 2.360055 0.127920
0.252832 2.043019 -0.049382
1.064481 2.337277 0.127773
0.262918 2.038733 -0.052368
1.059518 2.355924 0.127466
0.267429 2.038516 -0.070184
0.268472 2.032250 -0.055754
1.055482 2.371070 0.126462
1.042225 2.361722 0.217135
1.043149 2.368932 0.202493
1.042439 2.359976 0.198793
1.044458 2.360892 0.181746
1.047529 2.383182 0.173604
1.043954 2.377535 0.223231
1.044497 2.384220 0.208794
1.045724 2.392936 0.229531
1.046756 2.403804 0.204741
1.048853 2.413395 0.186212
1.044925 2.390877 0.194356
1.064931 2.396636 0.114814
1.053156 2.378587 0.153809
1.053648 2.397894 0.144708
1.053248 2.389400 0.123968
1.052594 2.404156 0.130277
0.111762 1.263391 0.214856
1.052015 2.405848 0.165457
1.052163 2.412430 0.151021
1.050502 2.420376 0.171769
1.050018 2.426789 0.157336
0.098325 1.252429 0.202251
0.106153 1.265528 0.206871
1.046413 2.438915 0.128482
1.098409 2.454743 0.123868
1.082528 2.453074 0.118292
1.071248 2.434143 0.114237
1.073523 2.452672 0.113932
1.067844 2.446901 0.112156
1.066248 2.452850 0.109297
1.136638 2.466618 0.198455
1.131302 2.456483 0.213076
0.256837 2.001217 -0.031937
0.265419 1.958632 -0.052097
1.110426 2.472804 0.248025
0.266126 2.008308 -0.082792
0.269646 2.015024 -0.059264
0.268335 2.002354 -0.068367
1.138208 2.481966 0.204755
1.130069 2.488188 0.225531
0.266645 1.995362 -0.053924
1.097105 2.461868 0.264388
1.129356 2.461303 0.145464
1.125324 2.474775 0.135710
1.131496 2.491418 0.140735
1.105259 2.487904 0.244515
1.100922 2.546694 0.236445
1.106003 2.550412 0.231205
1.113995 2.556717 0.221954
1.056370 2.552270 0.175200
1.066756 2.453413 0.265353
1.050631 2.453260 0.202843
1.048446 2.430063 0.227697
1.049154 2.428406 0.192517
1.051100 2.465326 0.190686
1.050709 2.450911 0.183809
1.051478 2.471969 0.176250
1.050679 2.454312 0.168885
1.050775 2.478324 0.161817
1.051846 2.493539 0.168119
1.049996 2.435172 0.178079
1.051470 2.488743 0.217734
1.052380 2.517000 0.195165
1.051057 2.510755 0.208175
1.050601 2.495054 0.203301
1.053872 2.523940 0.180725
1.053416 2.530360 0.166291
0.264056 1.992826 -0.089090
0.266396 1.986908 -0.074664
1.055272 2.551260 0.209300
1.054950 2.539157 0.187026
1.055298 2.545792 0.172589
1.109476 2.474442 0.126103
1.106394 2.485990 0.124171
1.101890 2.511357 0.117564
1.077783 2.470863 0.115525
1.075017 2.487538 0.111286
1.078591 2.470711 0.072183
1.073999 2.484565 0.083086
1.074844 2.502511 0.083233
1.070507 2.497813 0.091069
1.081988 2.517586 0.092363
1.071213 2.494651 0.099079
1.095388 2.544381 0.081325
1.092463 2.535946 0.060905
1.088396 2.562146 0.038048
1.091368 2.519992 0.054294
1.058186 2.568033 0.164449
1.054803 2.554161 0.158983
1.049780 2.576110 0.117245
1.052801 2.586226 0.121166
1.099751 2.560472 0.087613
1.097366 2.566380 0.073188
1.097577 2.580745 0.079231
1.091945 2.578021 0.044340
1.091896 2.592938 0.050647
1.100803 2.597155 0.085787
1.095331 2.602241 0.071374
1.090944 2.606213 0.056364
1.045918 2.595389 0.091442
1.070432 2.473321 0.105816
1.047065 2.463745 0.113322
1.049216 2.467675 0.105906
1.068466 2.464410 0.085083
1.048273 2.473966 0.091474
1.045940 2.490122 0.132968
1.046945 2.505320 0.139270
1.048785 2.512613 0.090541
1.047632 2.522676 0.101374
1.044168 2.517665 0.110411
1.046631 2.532202 0.079771
1.029348 2.529714 0.075185
1.045574 2.528223 0.131905
1.051203 2.536314 0.151865
1.049134 2.542306 0.137438
1.047020 2.539897 0.102270
1.044029 2.534477 0.115406
1.040693 2.548412 0.079793
1.043964 2.560556 0.094154
1.084096 2.633808 0.034422
1.036060 2.626179 0.023252
1.065140 2.639224 0.011422
1.044274 2.623210 0.034591
1.039573 2.613100 0.030868
1.115652 2.585173 0.199383
1.120759 2.593073 0.184927
1.104541 2.612824 0.210393
1.110062 2.620087 0.197584
1.100578 2.626785 0.216527
1.106726 2.634130 0.203905
1.096431 2.640748 0.222551
1.093828 2.657296 0.223772
1.151177 2.700143 0.123413
1.149669 2.690828 0.119654
1.146112 2.701564 0.156574
1.152909 2.715535 0.129712
1.147752 2.703430 0.108002
1.152994 2.722099 0.115277
1.143256 2.710775 0.098375
1.148337 2.727401 0.100861
1.147697 2.722536 0.150476
1.154408 2.733293 0.135942
1.139171 2.731014 0.166049
1.156375 2.737930 0.121569
1.153259 2.738361 0.104916
1.155306 2.744187 0.107138
1.158935 2.753541 0.127865
1.160660 2.760542 0.113422
1.142248 2.618419 0.141530
1.138149 2.611067 0.155362
1.142256 2.624963 0.127095
1.134639 2.624880 0.162088
1.143942 2.633800 0.147830
1.144529 2.649182 0.153932
1.142276 2.662426 0.162196
1.128517 2.652595 0.175866
1.138181 2.630420 0.112677
1.140971 2.662084 0.108527
1.138827 2.670069 0.104069
1.141792 2.689258 0.102711
1.136378 2.679191 0.099091
1.121826 2.672459 0.088884
1.113040 2.644193 0.087029
1.113151 2.673247 0.082090
1.140459 2.692596 0.173070
1.129860 2.698933 0.192159
1.136446 2.727929 0.171265
1.085132 2.700845 0.199064
1.161808 2.767668 0.116298
1.162277 2.775903 0.119721
1.160776 2.771729 0.128057
1.150209 2.816308 0.141284
1.151947 2.760070 0.148636
1.144820 2.770941 0.159745
1.131363 2.760492 0.174957
1.159094 2.768515 0.134170
1.130916 2.777792 0.175772
1.127636 2.774594 0.180916
1.136815 2.798071 0.165569
1.146540 2.825455 0.142488
1.129126 2.829698 0.146310
1.117285 2.813120 0.157888
1.114526 2.823317 0.147043
1.122677 2.731562 0.191436
1.108264 2.725184 0.200144
1.095628 2.772751 0.205573
1.115709 2.782133 0.196578
1.096380 2.708622 0.202179
1.078412 2.736136 0.197828
1.076116 2.722236 0.193282
1.065322 2.769500 0.190915
1.065284 2.779952 0.132744
1.064559 2.788148 0.153489
1.091344 2.788795 0.202234
1.104157 2.808261 0.174566
1.085383 2.810808 0.177831
1.102548 2.814293 0.160102
1.083425 2.817944 0.163875
1.080707 2.827945 0.150434
1.074193 2.812184 0.145319
1.110845 2.577352 0.213838
1.096152 2.603302 0.226514
1.056813 2.577902 0.220373
1.057386 2.569666 0.199629
1.057992 2.576369 0.185192
1.050286 2.619110 0.204143
1.086981 2.630722 0.239165
1.067298 2.635017 0.257464
1.088460 2.652588 0.231031
1.062741 2.652037 0.250996
1.044347 2.647390 0.216782
1.060912 2.611704 0.148180
1.055947 2.613133 0.181382
1.053469 2.630180 0.181574
1.060807 2.640613 0.143204
1.062607 2.661642 0.117480
1.061407 2.654891 0.114768
1.055358 2.610465 0.113907
1.059270 2.645824 0.111188
1.054483 2.674750 0.089567
1.057626 2.670328 0.173513
1.060441 2.677842 0.158973
1.070170 2.703750 0.185980
1.062930 2.686893 0.179703
1.061477 2.693048 0.165275
1.063090 2.676701 0.123784
1.061729 2.684727 0.144533
1.062509 2.691477 0.130093
1.061890 2.682924 0.109354
1.062712 2.698073 0.115658
1.061026 2.704167 0.101230
1.058304 2.713676 0.157159
1.057994 2.720136 0.142725
1.059145 2.726295 0.129806
1.060982 2.734016 0.113842
1.059099 2.737206 0.184205
1.055297 2.749280 0.155350
1.055734 2.737331 0.149084
1.057580 2.741498 0.134599
1.061486 2.764011 0.126454
1.132844 2.751337 0.080131
1.116107 2.715132 0.030643
1.114105 2.699943 0.024461
1.090146 2.667802 0.013678
1.092503 2.657883 0.026413
1.105248 2.676240 0.067077
1.105785 2.684371 0.053250
1.110583 2.692190 0.038795
1.107653 2.724393 0.005282
1.114014 2.721118 0.016217
1.123153 2.732079 0.071377
1.120218 2.739430 0.057625
1.119077 2.760714 0.049550
1.121118 2.776188 0.055847
1.116006 2.736578 0.022515
1.111013 2.741792 0.008101
1.106433 2.728945 0.003209
1.096919 2.764472 -0.010909
1.120013 2.782436 0.041417
1.120362 2.789072 0.026981
1.118419 2.801638 -0.001881
1.067183 2.753796 -0.004687
1.060345 2.779498 -0.004461
1.162239 2.797366 0.111593
1.150509 2.807388 0.084502
1.154491 2.825165 0.124239
1.155435 2.823570 0.089058
1.153956 2.844649 0.080936
1.133853 2.809047 0.070714
1.124208 2.789946 0.061299
1.147828 2.849560 0.066526
1.143010 2.854820 0.052111
1.140024 2.848469 0.049776
1.123377 2.804804 0.033274
1.122524 2.795875 0.046801
1.121486 2.795301 0.029481
1.124120 2.811544 0.018836
1.121009 2.796835 0.012987
1.129034 2.828006 0.024754
1.128483 2.832823 0.010116
1.137072 2.831767 0.060265
1.135299 2.837837 0.045837
1.144473 2.833179 0.139964
1.148515 2.838505 0.130571
1.153988 2.846504 0.116113
1.138831 2.854218 0.129505
1.145404 2.859149 0.122455
1.157365 2.860486 0.087228
1.155720 2.851280 0.083531
1.156149 2.852542 0.104048
1.151749 2.868154 0.108768
0.243100 1.991509 -0.001210
1.136259 2.863817 0.125493
1.142472 2.899787 0.105215
1.140629 2.879352 0.114346
0.252795 1.993522 -0.018688
1.118991 2.866553 0.128548
1.114395 2.884739 0.126415
1.153427 2.859682 0.070148
1.157335 2.867021 0.072792
1.150909 2.871865 0.057200
1.147045 2.883285 0.046466
1.137758 2.881437 0.029569
1.067104 2.778590 0.097560
1.063587 2.768870 0.093864
1.064570 2.784458 0.083135
1.058776 2.789716 0.066589
1.052098 2.811259 0.044314
1.045734 2.837759 0.020859
1.076772 2.842574 0.140656
1.071516 2.862185 0.097957
1.076198 2.834190 0.137182
1.068946 2.867415 0.066070
1.072006 2.895646 0.077637
1.064138 2.888474 0.041128
1.125861 2.840960 -0.005805
1.128056 2.855536 0.002562
1.121501 2.858605 -0.012576
0.255379 1.959652 0.018299
1.104043 2.859671 -0.044487
0.263206 1.966432 -0.031346
0.261225 1.952821 -0.002467
1.131333 2.880542 0.012742
1.133733 2.908380 0.007022
1.124262 2.914069 -0.011048
0.261748 1.931487 0.005660
1.137180 2.922650 0.010965
1.129200 2.928648 -0.001087
1.117562 2.932006 -0.015510
1.119626 2.947571 -0.009175
0.255719 1.960747 -0.101667
1.116622 2.916912 -0.021776
0.262143 1.955914 -0.087259
0.265522 1.935341 -0.079146
0.267588 1.929348 -0.064719
1.087257 2.952041 -0.037909
0.263545 1.913303 -0.088224
1.055764 2.919699 0.025890
1.035224 2.874353 0.024675
0.268977 1.914788 -0.071032
0.269477 1.899991 -0.077340
1.080061 2.644582 0.022245
1.074615 2.637827 0.020027
1.061345 2.653570 0.016804
1.051959 2.655116 0.047171
1.052875 2.700152 0.066086
1.053011 2.715118 0.072393
1.050334 2.706017 0.051662
1.046294 2.726415 0.043550
1.055902 2.745748 0.084993
1.050709 2.740674 0.014661
1.038621 2.767318 0.027325
0.987014 2.810380 0.017136
1.017320 2.828607 0.021613
0.977056 2.848289 0.048273
0.987553 2.886256 0.049123
1.036545 2.285980 0.185423
1.038116 2.292940 0.170982
1.037588 2.301188 0.191726
1.041247 2.301529 0.156171
1.038850 2.313746 0.197851
1.042784 2.338974 0.189882
1.040458 2.346743 0.210634
1.126129 2.910988 0.114589
1.110598 2.901084 0.127386
0.269642 1.916811 -0.035858
0.267485 1.924624 -0.015106
1.095448 2.894777 0.132471
1.091349 2.910221 0.135255
1.102601 2.929254 0.139069
1.116907 2.938995 0.125916
1.098125 2.946069 0.138609
1.112356 2.954112 0.132213
1.083487 2.939671 0.129291
0.267504 1.918089 -0.000671
1.117853 2.991158 0.129122
1.114120 3.008305 0.128359
1.121803 3.013411 0.121572
1.108838 3.022580 0.126123
1.099946 3.000430 0.135567
1.093911 3.023034 0.130988
1.086118 2.981688 0.131515
1.081578 2.966303 0.123565
1.073184 3.000473 0.121778
1.065431 3.007218 0.110130
1.061397 3.023226 0.098365
1.083986 2.876663 0.137016
1.077645 2.895087 0.129335
1.069267 2.903305 0.098389
1.070812 2.920993 0.105682
1.074319 2.939207 0.061370
1.074128 2.934460 0.110982
1.072419 2.940547 0.096555
1.071288 2.961719 0.088431
1.073466 2.971199 0.068783
1.069700 2.982768 0.080308
1.125350 2.964026 -0.002888
1.077794 2.983077 0.045098
1.073146 2.976615 0.008513
1.078273 2.996288 0.016225
0.115648 1.287681 0.163525
0.110150 1.270167 0.157499
1.108419 2.966171 -0.017037
1.103817 2.983432 -0.019016
1.112979 3.003751 -0.017022
1.109917 3.021722 -0.021446
1.073695 2.974160 -0.016120
1.076361 2.963900 -0.031630
1.079188 2.953063 -0.044866
1.072057 3.011411 0.057735
1.077725 3.026004 0.028840
1.068387 3.025364 0.064057
1.064524 3.039267 0.070379
1.100640 3.058249 -0.028023
1.091214 3.030877 -0.013301
1.086327 3.062850 -0.008195
1.090138 3.070406 -0.022646
1.079652 3.070842 0.009528
1.084596 3.083861 -0.016316
1.099607 3.062671 0.117692
1.084825 3.057026 0.121530
0.273921 1.904865 -0.007005
0.273254 1.902842 -0.042179
0.274777 1.894859 -0.062928
0.277544 1.890899 -0.013326
0.278580 1.882786 -0.034072
1.062580 3.055526 0.111871
1.089766 3.098759 0.109698
1.070508 3.109683 -0.001456
1.052793 3.122035 0.037914
1.080965 3.132593 0.109545
1.066661 3.125212 0.117492
1.062441 3.141101 0.119222
1.072456 3.164614 0.112431
1.048617 3.130759 0.127917
1.033940 3.125953 0.136031
1.031607 3.147930 0.053275
1.051581 3.171582 0.024586
1.000349 3.129846 0.147108
0.987476 3.108346 0.108543
0.986412 3.121146 0.079677
0.969674 3.146553 0.092361
0.962836 2.909538 0.061839
0.999530 3.158190 0.162589
0.257812 1.936501 0.024978
0.262525 1.922233 0.036058
1.021529 3.172709 0.143380
0.263555 1.905800 0.063393
0.275965 1.930149 0.054585
0.961404 3.161128 0.133880
0.276072 1.898896 0.007421
0.286756 1.890149 0.036597
0.283190 1.870929 -0.005222
0.287664 1.865577 0.009194
0.290673 1.874702 0.029768
0.293168 1.853958 0.038041
0.302682 1.890974 0.052568
0.294634 1.871959 0.077679
0.295416 1.848014 0.052468
0.295787 1.860027 0.057498
0.299909 1.841087 0.065414
1.090134 3.093458 -0.047306
1.080514 3.138805 -0.061427
1.059699 3.148837 -0.020807
1.065696 3.164722 -0.048751
0.292852 1.849177 0.087655
0.296790 1.852345 0.082964
0.307297 1.873786 0.061968
0.179563 1.860991 -0.083420
0.196442 1.872797 -0.096490
0.200777 1.852215 -0.088862
0.171999 1.852577 -0.068801
0.176030 1.832176 -0.060688
0.176596 1.825785 -0.046255
0.208998 1.810898 -0.073649
0.181898 1.805724 -0.038150
0.188796 1.799171 -0.058920
0.194982 1.803783 -0.065489
0.185245 1.791684 -0.044470
0.197587 1.794045 -0.062111
0.194694 1.779268 -0.050816
0.221685 1.886494 -0.109997
0.213187 1.857418 -0.094723
0.237019 1.890115 -0.110896
0.255647 1.887520 -0.099069
0.247836 1.849713 -0.095514
0.237899 1.825943 -0.086477
0.253172 1.829796 -0.086966
0.266434 1.847417 -0.082986
0.271595 1.827365 -0.074633
0.226129 1.809073 -0.076290
0.243250 1.805963 -0.078209
0.229127 1.797883 -0.071815
0.231565 1.788777 -0.068298
0.234459 1.777969 -0.064020
0.248648 1.785810 -0.070371
0.278019 1.807265 -0.067123
0.283438 1.787453 -0.059111
0.185745 1.823524 0.003318
0.185412 1.815047 -0.017422
0.189284 1.817924 0.017738
0.196060 1.801076 0.019611
0.197264 1.798575 0.025833
0.188183 1.785924 -0.030047
0.193748 1.780862 -0.015635
0.197756 1.790317 0.005090
0.200664 1.783947 0.018025
0.202600 1.786910 0.054681
0.199579 1.792649 0.040259
0.202458 1.771942 0.048376
0.202135 1.778753 0.051290
0.203656 1.763873 0.027628
0.203769 1.757360 0.042063
0.207665 1.745313 0.070918
0.192536 1.772152 -0.036372
0.196121 1.766563 -0.021951
0.202481 1.753325 -0.028285
0.201205 1.761374 -0.007538
0.204625 1.755742 0.006883
0.210498 1.746005 -0.032313
0.228778 1.738482 -0.037621
0.227050 1.716919 -0.012132
0.208498 1.735301 0.014995
0.206944 1.736733 0.050178
0.210349 1.722709 0.043858
0.212349 1.716698 0.058285
0.213156 1.715067 0.023104
0.221204 1.708991 0.003189
0.214395 1.708855 0.037534
0.248942 1.787234 0.089637
0.262067 1.804272 0.088864
0.240002 1.757292 -0.054413
0.257802 1.751692 -0.052626
0.260449 1.741824 -0.047615
0.275735 1.745643 -0.047129
0.232220 1.690279 0.010410
0.243241 1.684842 0.006829
0.245862 1.670902 0.016236
0.237119 1.663568 0.032954
0.262622 1.733718 -0.043581
0.250081 1.719797 -0.030801
0.250877 1.708194 -0.020051
0.271897 1.699217 -0.021564
0.284862 1.723578 -0.034310
0.287089 1.703368 -0.022539
0.295415 1.733212 -0.030422
0.259157 1.686115 -0.003946
0.264505 1.660946 0.010185
0.269236 1.642771 0.019067
0.285961 1.653379 0.006093
0.303616 1.700913 -0.009771
0.290410 1.691038 -0.013254
0.308850 1.680849 -0.001738
0.299692 1.656432 0.004143
0.313249 1.660424 0.007649
0.288585 1.637101 0.015772
0.318300 1.647968 0.016897
0.275602 1.865427 -0.072587
0.284256 1.869366 -0.040403
0.284689 1.862940 -0.025970
0.286420 1.825507 -0.057125
0.287654 1.840410 -0.053030
0.294255 1.835624 -0.038624
0.294321 1.820712 -0.044930
0.291832 1.843368 -0.017871
0.291533 1.836747 -0.003434
0.290942 1.844977 0.017310
0.293000 1.838983 0.031736
0.293564 1.824202 0.025428
0.297514 1.829950 -0.024202
0.297117 1.823301 -0.009764
0.299891 1.815652 -0.030519
0.301556 1.809553 -0.016090
0.295210 1.816252 0.004678
0.300526 1.796194 0.012785
0.301203 1.828082 0.060572
0.302442 1.813481 0.054260
0.298294 1.803988 0.033536
0.308465 1.785224 0.041622
0.317198 1.781985 0.053858
0.299566 1.800635 -0.036823
0.303630 1.795174 -0.022405
0.309191 1.783570 0.006441
0.309643 1.775302 -0.014302
0.302616 1.765004 -0.032461
0.306485 1.752979 -0.023363
0.301843 1.743366 -0.026882
0.317629 1.773015 0.018198
0.316758 1.734251 0.001925
0.332414 1.740263 0.037037
0.310993 1.717786 -0.004357
0.316492 1.715796 0.003240
0.319375 1.705015 0.006471
0.327851 1.694257 0.018136
0.325644 1.678725 0.014505
0.325115 1.657126 0.019970
0.332417 1.674000 0.026246
0.220006 1.735513 0.099736
0.226681 1.748614 0.104491
0.212551 1.739727 0.086092
0.232544 1.730731 0.112317
0.212701 1.725180 0.079024
0.217662 1.720747 0.093772
0.238019 1.706254 0.119673
0.223353 1.683224 0.060060
0.227309 1.671193 0.088914
0.230555 1.680445 0.109642
0.241075 1.694826 0.123295
0.248887 1.665668 0.135660
0.246396 1.674952 0.130997
0.236345 1.660513 0.117747
0.253146 1.651119 0.145317
0.259944 1.746323 0.116842
0.274784 1.751825 0.117436
0.288509 1.761485 0.116245
0.241906 1.713326 0.122208
0.250096 1.722203 0.125002
0.270461 1.707342 0.150747
0.302179 1.711175 0.183063
0.284439 1.644436 0.191339
0.229473 1.663380 0.068163
0.234826 1.656538 0.047741
0.230670 1.657156 0.082593
0.236351 1.637196 0.090698
0.243727 1.643855 0.041054
0.241766 1.627936 0.068957
0.248529 1.617118 0.063599
0.236403 1.645598 0.111440
0.238562 1.642939 0.118565
0.241202 1.625402 0.119548
0.241115 1.637051 0.124478
0.252631 1.615360 0.148370
0.245358 1.618617 0.132024
0.241172 1.617006 0.098806
0.245182 1.596601 0.106919
0.250362 1.599665 0.141508
0.270624 1.586149 0.068645
0.256022 1.576993 0.097373
0.269843 1.577507 0.078778
0.255801 1.556481 0.123131
0.276862 1.560292 0.087983
0.263438 1.544662 0.114411
0.268817 1.551558 0.102335
0.292735 1.621672 0.025969
0.288906 1.576495 0.059874
0.311086 1.614004 0.028439
0.323491 1.634934 0.027075
0.328744 1.614781 0.035385
0.316433 1.594036 0.036364
0.283723 1.568609 0.073401
0.257558 1.595198 0.156478
0.265371 1.590736 0.170881
0.260910 1.574618 0.164593
0.271478 1.564346 0.193419
0.274602 1.572056 0.213510
0.280024 1.546494 0.237792
0.256473 1.519354 0.158965
0.259195 1.566081 0.161187
0.255896 1.549965 0.137566
0.262593 1.553461 0.173081
0.259461 1.537829 0.166421
0.265839 1.545868 0.186272
0.259331 1.535948 0.131245
0.258001 1.529052 0.145685
0.256630 1.514946 0.191482
0.247701 1.487625 0.215381
0.262913 1.491145 0.232734
0.261816 1.525371 0.195282
0.260642 1.518517 0.209722
0.275921 1.508286 0.237360
0.288080 1.520069 0.241575
0.269538 1.606775 0.177170
0.279813 1.615896 0.197023
0.278147 1.595982 0.206004
0.281458 1.605703 0.209724
0.323710 1.622447 0.211869
0.285379 1.584822 0.234844
0.305579 1.590482 0.235657
0.298124 1.604567 0.224500
-0.103720 3.801998 -0.331129
-0.087746 3.780585 -0.342036
-0.093799 3.803543 -0.328754
-0.101625 3.832566 -0.318461
-0.134232 3.832810 -0.338402
-0.139100 3.851066 -0.340674
-0.152561 3.901431 -0.354609
0.097205 1.258920 0.172057
0.295834 1.613064 0.217874
0.314339 1.604862 0.222733
0.316710 1.596038 0.228359
0.330034 1.602061 0.219059
0.322907 1.573341 0.242822
0.343676 1.556283 0.248589
0.300140 1.531637 0.245054
0.314407 1.543759 0.248511
0.298609 1.785987 0.111527
0.331899 1.716652 0.095918
0.334456 1.699708 0.088462
0.335659 1.708094 0.108569
0.335979 1.693570 0.102891
0.344037 1.735826 0.068204
0.344058 1.736021 0.085483
0.339677 1.714181 0.059570
0.338243 1.707257 0.074010
0.338075 1.723989 0.115496
0.317140 1.722110 0.185938
0.358570 1.682369 0.140779
0.342509 1.678255 0.095660
0.341745 1.683518 0.089181
0.344910 1.671133 0.057975
0.343988 1.663995 0.055067
0.340780 1.648210 0.048774
0.352836 1.641549 0.070502
0.342974 1.693586 0.067684
0.345279 1.679268 0.061368
0.342282 1.686859 0.082122
0.348446 1.673570 0.075790
0.350689 1.667624 0.090216
0.356225 1.654167 0.083886
0.357510 1.639579 0.077574
0.353593 1.661855 0.104639
0.360894 1.657256 0.119043
0.362399 1.667896 0.135692
0.365531 1.655955 0.124617
0.379990 1.655150 0.134822
0.366649 1.651620 0.115991
0.367007 1.635564 0.091969
0.371595 1.632791 0.100760
0.384092 1.641129 0.128900
0.389958 1.625469 0.127621
-0.439245 3.819066 -0.250392
-0.415000 3.797215 -0.263089
-0.393668 3.829554 -0.216879
-0.391530 3.821349 -0.227613
-0.355108 3.806604 -0.252345
-0.324924 3.815651 -0.254710
-0.275318 3.869806 -0.283097
-0.265658 3.847829 -0.291159
-0.220561 3.912345 -0.328722
-0.382708 3.787523 -0.270308
-0.368621 3.734206 -0.294473
-0.384701 3.672830 -0.249728
-0.388803 3.643932 -0.227057
-0.378783 3.650804 -0.236377
-0.350684 3.667422 -0.255590
-0.406590 3.633150 -0.213635
-0.343799 3.641906 -0.233162
-0.358631 3.575415 -0.215285
-0.329428 3.582271 -0.226340
-0.388312 3.564547 -0.208610
-0.374068 3.510902 -0.216173
-0.354108 3.507554 -0.219915
-0.316798 3.559454 -0.234182
-0.321070 3.455605 -0.243033
-0.291013 3.442878 -0.275927
-0.288808 3.434322 -0.292861
-0.313688 3.410236 -0.300133
-0.284411 3.418104 -0.334691
-0.304952 3.370886 -0.275829
-0.379861 3.776682 -0.279255
-0.348591 3.781800 -0.272316
-0.318011 3.789413 -0.271286
-0.300672 3.796221 -0.276202
-0.256312 3.819957 -0.302712
-0.244537 3.757639 -0.315345
-0.320345 3.675955 -0.253847
-0.223805 3.684999 -0.297263
-0.288216 3.677655 -0.258942
-0.285255 3.666573 -0.255895
-0.271299 3.609234 -0.256432
-0.300437 3.601387 -0.238666
-0.292408 3.571105 -0.245672
-0.289783 3.538753 -0.251257
-0.255335 3.554002 -0.264822
-0.279253 3.671241 -0.262697
-0.267816 3.659354 -0.269051
-0.215536 3.648999 -0.294227
-0.235160 3.600503 -0.277165
-0.206408 3.616437 -0.294112
-0.242440 3.794942 -0.317931
-0.204832 3.852975 -0.345554
-0.196445 3.818863 -0.347850
-0.216572 3.774723 -0.336737
-0.187233 3.786831 -0.346349
-0.175281 3.864318 -0.353352
-0.204493 3.716712 -0.358697
-0.213179 3.700063 -0.327022
-0.207576 3.671693 -0.339660
-0.207731 3.665109 -0.325224
-0.205621 3.657282 -0.345974
-0.206325 3.650553 -0.331536
-0.206722 3.643905 -0.317099
-0.204042 3.636230 -0.337852
-0.204364 3.629603 -0.323416
-0.201072 3.615548 -0.329736
-0.196961 3.608253 -0.350496
-0.193456 3.615728 -0.364945
-0.197591 3.601543 -0.336058
-0.199639 3.609387 -0.315307
-0.196545 3.603668 -0.300885
-0.195555 3.595543 -0.321631
-0.190474 3.590354 -0.307217
-0.270633 3.515630 -0.259767
-0.245307 3.516317 -0.265185
-0.237736 3.487860 -0.265621
-0.222258 3.429395 -0.284597
-0.189735 3.551345 -0.338466
-0.216435 3.530281 -0.268303
-0.177233 3.505465 -0.269192
-0.199153 3.465285 -0.271818
-0.168308 3.471941 -0.268520
-0.176390 3.435405 -0.271118
-0.162469 3.450033 -0.266562
-0.241850 3.377715 -0.338988
-0.229622 3.374601 -0.324989
-0.253428 3.361731 -0.349718
-0.250912 3.352288 -0.349129
-0.232153 3.343213 -0.338687
-0.228933 3.359855 -0.331299
-0.221969 3.340235 -0.323199
-0.227105 3.324402 -0.328882
-0.188565 3.419654 -0.275787
-0.138482 3.339135 -0.350599
-0.136606 3.353393 -0.346393
-0.131315 3.333318 -0.337697
-0.191502 3.579845 -0.363131
-0.193361 3.572809 -0.348689
-0.192827 3.581339 -0.327949
-0.185864 3.561719 -0.319849
-0.162126 3.554953 -0.291079
-0.181009 3.533151 -0.332483
-0.159172 3.512794 -0.274834
-0.169193 3.519518 -0.374016
-0.148381 3.482112 -0.357847
-0.141860 3.494812 -0.284449
-0.141667 3.493821 -0.301267
-0.152154 3.457322 -0.264408
-0.138203 3.488513 -0.287536
-0.132487 3.475103 -0.293866
-0.119573 3.402654 -0.322731
-0.133757 3.403769 -0.342459
-0.084788 3.403690 -0.295862
-0.127211 3.384281 -0.332844
-0.137527 3.375792 -0.352426
-0.122856 3.364772 -0.325895
-0.105803 3.364380 -0.310259
-0.117326 3.344352 -0.318026
-0.080074 3.384844 -0.303707
-0.353867 3.434983 -0.216649
-0.352940 3.431486 -0.217786
-0.337252 3.396288 -0.200085
-0.308710 3.385216 -0.246187
-0.304247 3.376807 -0.211939
-0.307054 3.381403 -0.228136
-0.298340 3.348644 -0.229277
-0.271396 3.247454 -0.225795
-0.266723 3.230526 -0.185718
-0.278565 3.275517 -0.154751
0.343899 1.612729 0.051255
-0.189480 3.306149 -0.289791
-0.192009 3.315639 -0.290711
-0.173262 3.367910 -0.277368
-0.153361 3.419252 -0.263653
-0.142564 3.375096 -0.275326
-0.155803 3.338357 -0.280016
-0.176962 3.318821 -0.285715
-0.160211 3.318841 -0.279239
-0.157206 3.307600 -0.275742
-0.154995 3.299348 -0.272438
-0.133402 3.344526 -0.280074
-0.147777 3.320939 -0.271209
-0.150395 3.296711 -0.263938
-0.139393 3.302399 -0.245620
-0.136112 3.290141 -0.241113
-0.125507 3.311498 -0.243936
-0.128675 3.289407 -0.235159
-0.120614 3.293296 -0.232329
-0.142756 3.437629 -0.256929
-0.138153 3.420106 -0.254319
-0.132833 3.404372 -0.255751
-0.129373 3.419903 -0.248752
-0.123945 3.428103 -0.245921
-0.124748 3.376811 -0.268723
-0.110308 3.376637 -0.259925
-0.119181 3.348388 -0.281266
-0.103943 3.351746 -0.280474
-0.114233 3.329269 -0.314695
-0.102815 3.344851 -0.300749
-0.105602 3.336646 -0.286691
-0.107596 3.327728 -0.307424
-0.099197 3.323421 -0.293024
-0.099819 3.316713 -0.278586
-0.075664 3.368333 -0.299904
-0.104446 3.295855 -0.235262
0.355418 1.609161 0.064970
0.349670 1.592649 0.058571
0.361877 1.607603 0.072173
0.365732 1.590622 0.075285
-0.124210 3.302708 -0.331798
-0.133815 3.303973 -0.348797
-0.135597 3.289720 -0.357637
-0.124945 3.255000 -0.353319
0.370297 1.576149 0.083687
-0.261903 3.211905 -0.217960
0.367848 1.620857 0.085659
0.375842 1.616570 0.100426
-0.198639 3.276746 -0.283260
-0.207440 3.258211 -0.290746
-0.193658 3.257071 -0.275149
-0.182563 3.280250 -0.284004
-0.181140 3.257885 -0.277607
-0.200723 3.238526 -0.282645
-0.181374 3.214861 -0.262942
-0.170525 3.235229 -0.270362
-0.227194 3.202773 -0.294660
-0.197531 3.213834 -0.293448
-0.191964 3.192767 -0.302996
-0.195708 3.165209 -0.314200
-0.173338 3.186265 -0.306377
-0.158754 3.190131 -0.325181
-0.157515 3.185297 -0.336260
-0.223324 3.188670 -0.266671
-0.183545 3.161159 -0.301056
-0.160145 3.199739 -0.252232
-0.153144 3.170273 -0.247997
-0.161038 3.263046 -0.277378
-0.117584 3.280287 -0.326103
-0.155775 3.243769 -0.268747
-0.151324 3.224520 -0.258445
-0.138044 3.235901 -0.256667
-0.134970 3.224415 -0.252426
-0.141535 3.277596 -0.255847
-0.128822 3.258917 -0.246469
-0.115265 3.273219 -0.230872
-0.111869 3.258415 -0.231938
-0.123304 3.241949 -0.245063
-0.118209 3.222895 -0.239302
-0.117875 3.240947 -0.239689
-0.111279 3.221230 -0.231589
-0.145379 3.185145 -0.328846
-0.114807 3.251157 -0.338926
-0.109522 3.250017 -0.333333
-0.119423 3.225717 -0.349134
-0.121420 3.219535 -0.351511
-0.123580 3.225503 -0.365938
-0.115179 3.209928 -0.339099
-0.128065 3.196784 -0.344326
-0.126343 3.203295 -0.357798
-0.102731 3.224479 -0.334404
-0.111500 3.196195 -0.333479
-0.092024 3.198526 -0.330099
-0.145962 3.204490 -0.250956
-0.132448 3.214996 -0.248951
-0.129748 3.204904 -0.245582
-0.126711 3.189100 -0.242702
-0.118831 3.204290 -0.237863
-0.115381 3.212343 -0.234864
-0.166787 3.129943 -0.229893
-0.146573 3.145529 -0.242260
-0.100034 3.216161 -0.219789
-0.131101 3.148776 -0.243107
-0.120377 3.169760 -0.241073
-0.112923 3.203150 -0.231902
-0.107057 3.186338 -0.230636
-0.104638 3.201526 -0.223488
-0.085578 3.167575 -0.255216
-0.147356 3.160463 -0.354041
-0.176485 3.134727 -0.294919
-0.185421 3.125001 -0.297985
-0.179133 3.144624 -0.298366
-0.173943 3.125226 -0.291788
-0.169795 3.109713 -0.287048
-0.164754 3.090743 -0.288847
-0.159259 3.132148 -0.297525
-0.150035 3.153082 -0.308343
-0.143009 3.141988 -0.310740
-0.141051 3.123866 -0.308866
-0.136715 3.108250 -0.310663
-0.161712 3.109838 -0.289957
-0.154672 3.114015 -0.295071
-0.150213 3.096432 -0.297153
-0.160705 3.075478 -0.292057
-0.151225 3.061296 -0.294485
-0.158268 3.066332 -0.291536
-0.142317 3.067466 -0.302907
-0.131124 3.094040 -0.315764
-0.136419 3.071777 -0.308983
-0.137097 3.050375 -0.299311
-0.127187 3.193377 -0.365541
-0.114723 3.157543 -0.326401
-0.084698 3.156779 -0.330707
-0.131405 3.148716 -0.318820
-0.112637 3.139328 -0.326415
-0.116868 3.119927 -0.325323
-0.108406 3.123400 -0.328055
-0.082490 3.148508 -0.329095
-0.133948 3.096338 -0.361734
-0.117316 3.083873 -0.324533
-0.096650 3.088619 -0.324217
-0.109516 3.066434 -0.320756
-0.107462 3.058760 -0.317858
-0.104294 3.046921 -0.313908
-0.093365 3.067040 -0.318155
-0.089072 3.050975 -0.313981
-0.091608 3.121539 -0.327587
-0.073036 3.110004 -0.315049
-0.083212 3.090132 -0.318461
-0.071978 3.088927 -0.309254
-0.079616 3.076705 -0.313526
-0.085053 3.070517 -0.315506
-0.077966 3.070537 -0.311418
-0.072071 3.051182 -0.308458
-0.065711 3.069122 -0.301153
-0.131607 3.089553 -0.234635
-0.185400 3.047151 -0.204700
-0.136928 3.061145 -0.207318
-0.166857 3.029113 -0.271718
-0.152674 3.045432 -0.283818
-0.161009 3.015862 -0.260939
-0.160070 3.012580 -0.245236
-0.155993 3.057813 -0.289579
-0.132230 3.029981 -0.292693
-0.162868 3.023527 -0.217936
-0.175700 3.010217 -0.235299
-0.143411 3.016505 -0.228803
-0.131556 3.028491 -0.210635
-0.123034 3.057680 -0.213307
-0.120538 3.048370 -0.208825
-0.117540 3.037162 -0.205416
-0.115705 3.030268 -0.205316
-0.128302 3.016105 -0.220660
-0.118086 3.015931 -0.214320
-0.108638 3.003531 -0.220670
-0.111832 3.015639 -0.210029
-0.126829 3.132741 -0.241654
-0.125077 3.115527 -0.241901
-0.107760 3.122265 -0.246672
-0.099547 3.107428 -0.246055
-0.118013 3.099612 -0.241917
-0.112226 3.082217 -0.238245
-0.097288 3.141709 -0.249936
-0.092921 3.127702 -0.250017
-0.083107 3.151947 -0.258542
-0.081938 3.134090 -0.257711
-0.087032 3.105593 -0.248863
-0.068506 3.105072 -0.264353
-0.109046 3.066130 -0.228567
-0.093474 3.063640 -0.232323
-0.078256 3.076832 -0.244076
-0.073864 3.053503 -0.238832
-0.061069 3.069124 -0.259201
-0.055554 3.050825 -0.294107
-0.058205 3.058427 -0.254949
-0.062481 3.043814 -0.243425
-0.055801 3.049445 -0.251956
-0.051111 3.032420 -0.248955
-0.113727 3.053494 -0.216161
-0.104809 3.050366 -0.218522
-0.099364 3.036329 -0.207189
-0.083529 3.031768 -0.211661
-0.091500 3.001787 -0.206861
-0.078170 3.011995 -0.188775
-0.064484 3.021351 -0.218282
-0.059549 3.023121 -0.235308
-0.109766 3.312196 -0.313308
-0.103716 3.291394 -0.306903
-0.098275 3.308735 -0.299335
-0.089855 3.299582 -0.272804
-0.091814 3.288982 -0.291234
-0.086518 3.286871 -0.283487
-0.099894 3.275532 -0.305517
-0.090531 3.274393 -0.297545
-0.082801 3.272810 -0.289546
-0.081827 3.285097 -0.276841
-0.073835 3.257363 -0.289487
-0.078356 3.257156 -0.223094
-0.070906 3.274920 -0.248016
-0.068978 3.252114 -0.275073
-0.061385 3.234508 -0.231799
-0.072640 3.239038 -0.297367
-0.083847 3.214923 -0.324988
-0.071338 3.229823 -0.284213
-0.070477 3.229213 -0.267372
-0.069968 3.224555 -0.253563
-0.068237 3.218926 -0.240700
-0.077225 3.198289 -0.245250
-0.071733 3.206590 -0.293981
-0.072565 3.199826 -0.279542
-0.069293 3.185766 -0.285862
-0.082952 3.183977 -0.250627
-0.076829 3.191613 -0.263903
-0.055514 3.180042 -0.186695
-0.072087 3.183177 -0.321027
-0.070954 3.166510 -0.322841
-0.065339 3.163501 -0.312927
-0.062729 3.157653 -0.298502
-0.065393 3.149549 -0.282174
-0.066375 3.126822 -0.311101
-0.061589 3.133100 -0.290431
-0.064937 3.105731 -0.302977
-0.062664 3.093252 -0.274117
-0.059778 3.072548 -0.266000
-0.056602 3.065005 -0.286755
0.375985 1.601550 0.093754
0.380579 1.599052 0.101945
0.384314 1.612154 0.114460
-0.074211 2.997152 -0.186557
-0.059523 2.996283 -0.176075
-0.101495 3.036449 -0.310780
-0.084921 3.035407 -0.312042
-0.139925 3.003424 -0.268651
-0.129644 3.010293 -0.287118
-0.113891 3.018198 -0.300560
-0.123096 2.998447 -0.289002
-0.128004 2.981585 -0.262069
-0.119594 2.976366 -0.284899
-0.123464 2.967862 -0.268394
-0.119242 2.954056 -0.274718
-0.113998 2.962451 -0.288755
-0.118443 2.977341 -0.247129
-0.101632 2.976893 -0.236340
-0.115786 2.962259 -0.251556
-0.109721 2.945802 -0.250955
-0.098219 2.962285 -0.238353
-0.104438 2.944911 -0.245910
-0.114706 2.940332 -0.281044
-0.105797 2.930391 -0.293165
-0.096142 2.955208 -0.303045
-0.092079 2.935544 -0.303639
-0.101437 2.913914 -0.293780
-0.087363 2.922209 -0.303615
-0.114608 2.933816 -0.266609
-0.105903 2.930170 -0.250526
-0.111756 2.919645 -0.272927
-0.107750 2.914168 -0.258509
-0.098783 2.907773 -0.246305
-0.107947 2.905728 -0.279250
-0.101553 2.892500 -0.285584
-0.096921 2.897043 -0.292909
-0.105134 2.885004 -0.271133
-0.101631 2.894325 -0.250407
-0.095496 2.892483 -0.242768
-0.102836 2.879074 -0.256708
-0.099286 3.028184 -0.308898
-0.095005 3.008377 -0.306699
-0.090280 2.994362 -0.307519
-0.086065 2.978495 -0.309301
-0.071545 2.985093 -0.315396
-0.068942 3.036654 -0.309895
-0.052447 3.036225 -0.299417
-0.056763 2.990758 -0.317793
-0.050203 3.006985 -0.312009
-0.044584 3.006409 -0.307462
-0.040442 2.990808 -0.309874
-0.098962 2.991160 -0.227014
-0.095669 2.977106 -0.233333
-0.071774 2.984298 -0.196023
-0.071524 2.976989 -0.219000
-0.081377 2.962117 -0.231182
-0.071219 2.962140 -0.225308
-0.062866 2.955249 -0.213343
-0.064848 2.942362 -0.217206
-0.059738 2.953681 -0.315549
-0.071335 2.928806 -0.307934
-0.057035 2.930643 -0.310685
-0.047317 2.955253 -0.318394
-0.032673 2.960253 -0.316427
-0.025300 2.933886 -0.311392
-0.072213 2.925465 -0.220070
-0.091535 2.880780 -0.291026
-0.086995 2.859981 -0.283738
-0.099307 2.865082 -0.263030
-0.088507 2.831553 -0.261253
-0.059061 2.816045 -0.288449
-0.059630 2.794446 -0.280294
-0.054378 2.798539 -0.286262
-0.063626 2.894198 -0.306490
-0.033686 2.904153 -0.310983
-0.019059 2.906387 -0.306198
-0.059130 2.877338 -0.305901
-0.054620 2.860074 -0.304806
-0.057699 2.837906 -0.296559
-0.040051 2.866819 -0.310817
-0.013377 2.889181 -0.305356
-0.024987 2.871446 -0.312246
-0.023746 2.853482 -0.311138
-0.009002 2.872462 -0.304776
-0.004256 2.854945 -0.303001
-0.025813 2.813450 -0.302508
-0.030669 2.772437 -0.292497
-0.016393 2.778135 -0.297597
-0.015686 2.836559 -0.308345
-0.001687 2.784055 -0.302086
0.008792 2.805888 -0.304901
-0.043459 3.032100 -0.284988
-0.040188 3.026428 -0.270567
-0.041391 3.019565 -0.256127
-0.034791 2.989614 -0.303945
-0.024981 2.979141 -0.275116
-0.029448 2.994729 -0.233613
-0.008025 2.992972 -0.217248
-0.030309 2.986111 -0.254351
-0.024932 2.972612 -0.260681
-0.022299 2.971467 -0.295869
-0.018608 2.957518 -0.302191
-0.010944 2.953016 -0.287788
-0.020021 2.942211 -0.308491
-0.010084 2.938307 -0.294122
-0.013204 2.922554 -0.300392
-0.015713 2.958787 -0.269012
-0.018322 2.952898 -0.252579
-0.010151 2.938964 -0.259494
0.006951 2.929409 -0.225138
-0.006672 2.926011 -0.265296
-0.005616 2.932961 -0.279682
-0.006697 2.916886 -0.234750
-0.008673 2.897590 -0.242670
0.032489 2.963205 -0.219755
0.030990 2.968836 -0.219749
-0.006836 2.887845 -0.298596
-0.005811 2.889963 -0.263423
-0.007417 2.882994 -0.248981
-0.002755 2.875847 -0.269743
-0.005033 2.868698 -0.255298
-0.000382 2.868089 -0.290495
-0.000238 2.855044 -0.261625
0.007737 2.848778 -0.282401
0.017710 2.832002 -0.289298
0.019048 2.829882 -0.271710
0.028903 2.818008 -0.280668
0.038809 2.790783 -0.293322
0.395760 1.607627 0.127713
-0.078668 2.890716 -0.229057
0.396688 1.592819 0.125089
-0.053361 2.980220 -0.176291
-0.058435 2.967388 -0.190186
-0.047618 2.964807 -0.178183
-0.044611 2.979455 -0.169501
-0.031986 2.961388 -0.161525
-0.022629 2.926775 -0.160146
-0.053105 2.917459 -0.193751
-0.060116 2.900676 -0.200969
-0.049688 2.905055 -0.183137
-0.057065 2.871311 -0.196530
-0.055886 2.880330 -0.192859
-0.049049 2.875607 -0.178452
-0.046206 2.912767 -0.180286
-0.035283 2.910182 -0.165454
-0.003434 2.854373 -0.144258
-0.086363 2.858200 -0.240297
-0.081868 2.841380 -0.240728
-0.078529 2.857527 -0.234246
-0.084112 2.826180 -0.246836
-0.084061 2.811264 -0.253143
-0.066468 2.824334 -0.232476
-0.060543 2.822671 -0.225353
-0.057546 2.798693 -0.209949
-0.057630 2.812701 -0.203765
-0.059883 2.806460 -0.189197
-0.061154 2.799580 -0.174757
-0.059092 2.816382 -0.167900
-0.061250 2.784624 -0.181062
-0.057335 2.811650 -0.159913
-0.078427 2.797833 -0.259473
-0.069815 2.792714 -0.243158
-0.067264 2.784957 -0.266746
-0.065972 2.778455 -0.248705
-0.057338 2.783818 -0.216256
-0.054886 2.769541 -0.222573
-0.059117 2.773110 -0.272168
-0.045153 2.763926 -0.283011
-0.057495 2.760458 -0.243303
-0.051475 2.755518 -0.228894
-0.059703 2.770105 -0.187376
-0.053464 2.763376 -0.208144
-0.061572 2.765733 -0.172374
-0.057182 2.750426 -0.178783
-0.055363 2.758176 -0.158524
-0.055136 2.743306 -0.164832
-0.048005 2.749899 -0.214473
-0.043783 2.736093 -0.220798
-0.041493 2.730160 -0.206372
-0.049561 2.736401 -0.185597
-0.050282 2.729667 -0.171159
-0.042048 2.723470 -0.191934
-0.043180 2.716626 -0.177494
-0.062715 2.855194 -0.219878
-0.057842 2.843406 -0.191028
-0.058796 2.828222 -0.197330
-0.004224 2.855762 -0.225802
0.002921 2.828455 -0.240366
0.005304 2.819067 -0.225871
-0.055808 2.837406 -0.176601
-0.050613 2.847439 -0.172969
-0.048816 2.834600 -0.161404
0.004985 2.822679 -0.147916
0.010224 2.803006 -0.147237
0.013156 2.790666 -0.187188
0.017602 2.774091 -0.195980
0.014810 2.784439 -0.172813
0.014819 2.786310 -0.154825
0.015641 2.762141 -0.165130
0.019209 2.748160 -0.171451
-0.034538 2.726880 -0.157061
-0.036681 2.711814 -0.163087
-0.030657 2.711425 -0.158719
-0.016052 2.779299 -0.142966
-0.015235 2.714756 -0.157074
-0.003910 2.733424 -0.158817
0.010278 2.741321 -0.161567
0.015295 2.727892 -0.161452
-0.016865 2.958824 -0.147055
-0.001070 2.907980 -0.222590
0.013924 2.906135 -0.207299
0.013664 2.883909 -0.199458
-0.007082 2.876542 -0.234548
-0.002445 2.871233 -0.220132
0.005593 2.835123 -0.253521
0.007119 2.815902 -0.210221
0.022245 2.817252 -0.263012
0.021875 2.803053 -0.251767
0.024928 2.807233 -0.259209
0.010331 2.808369 -0.230977
0.010806 2.801953 -0.216543
0.018069 2.795498 -0.237316
0.035458 2.798280 -0.272566
0.040650 2.784731 -0.278895
0.025536 2.782555 -0.243653
0.023238 2.775401 -0.229210
0.033408 2.770918 -0.252638
0.029246 2.762069 -0.235541
0.016743 2.782061 -0.208440
0.022693 2.768714 -0.214772
0.022790 2.762198 -0.200337
0.028655 2.748828 -0.206668
0.028757 2.742313 -0.192233
0.384499 1.582723 0.103791
0.398660 1.624361 0.135142
0.360822 1.613826 0.214827
0.364618 1.599592 0.216548
0.357802 1.567459 0.236876
0.383706 1.650517 0.225712
0.391047 1.622728 0.212808
0.380086 1.600923 0.213262
0.385051 1.584057 0.216137
0.395084 1.607507 0.209496
0.401675 1.593405 0.208274
0.110783 1.288232 0.198723
0.107050 1.280795 0.196016
0.118925 1.296968 0.167065
0.090573 1.159521 0.232026
0.083597 1.185662 0.227362
0.088872 1.223836 0.210288
0.079540 1.200767 0.218521
0.075386 1.155326 0.231515
0.364550 1.550605 0.245554
0.375454 1.559157 0.234495
0.382979 1.539115 0.239401
0.398727 1.547453 0.226376
0.400298 1.526583 0.231134
0.412134 1.543600 0.219847
0.414134 1.597097 0.204320
-0.013907 2.768808 -0.296456
0.002929 2.766316 -0.299503
-0.042735 2.754862 -0.281786
-0.048735 2.739470 -0.270389
-0.037908 2.747950 -0.282786
-0.051514 2.732189 -0.255942
-0.047513 2.726712 -0.241524
-0.039907 2.705417 -0.268604
-0.031230 2.711700 -0.277409
-0.043620 2.697886 -0.254153
-0.037957 2.684463 -0.260483
-0.041808 2.706757 -0.233419
-0.035471 2.710290 -0.198269
-0.034958 2.703884 -0.183835
-0.030927 2.696569 -0.204595
-0.026860 2.691109 -0.190176
-0.038870 2.678686 -0.248269
-0.037543 2.674775 -0.238866
-0.029176 2.682103 -0.210908
-0.018840 2.662329 -0.200499
-0.021752 2.676171 -0.271991
-0.029320 2.643983 -0.244192
-0.028441 2.652439 -0.223524
-0.026921 2.635573 -0.230826
-0.021485 2.630971 -0.250602
-0.006365 2.620204 -0.256687
-0.022156 2.618852 -0.224252
-0.016835 2.610736 -0.242493
-0.026332 2.754344 -0.290147
-0.018580 2.740091 -0.289908
-0.017656 2.715895 -0.284814
-0.012243 2.701515 -0.283117
0.007812 2.748447 -0.296480
0.023132 2.752151 -0.295723
0.012494 2.730890 -0.294260
0.025177 2.744487 -0.294089
0.034309 2.716409 -0.290133
0.012220 2.674706 -0.287495
0.001983 2.650589 -0.278422
0.020301 2.640157 -0.286026
0.037170 2.699501 -0.289117
0.042692 2.682375 -0.288135
0.030645 2.662748 -0.290326
0.046014 2.666268 -0.289135
0.050361 2.649924 -0.289788
-0.031305 2.698313 -0.169416
-0.026839 2.696999 -0.163912
-0.011581 2.641144 -0.197036
-0.004357 2.594429 -0.199239
-0.010987 2.698771 -0.158580
-0.014343 2.672967 -0.182100
-0.003378 2.669125 -0.167230
-0.010794 2.658981 -0.188423
0.009392 2.651269 -0.159637
0.033288 2.716027 -0.166940
0.040223 2.690245 -0.149164
-0.003220 2.624594 -0.186632
0.006515 2.635054 -0.167062
0.001932 2.604492 -0.178525
0.036670 2.581246 -0.139321
0.058923 2.620036 -0.145565
0.067203 2.589034 -0.138626
0.063125 2.604299 -0.142426
-0.001465 2.599313 -0.249421
0.011916 2.608305 -0.264891
0.021631 2.597654 -0.269704
0.032342 2.606076 -0.282043
0.009559 2.587899 -0.255217
0.020851 2.554502 -0.253443
0.025744 2.559128 -0.260799
0.039421 2.568776 -0.274112
0.044141 2.612065 -0.288380
0.054910 2.632848 -0.288708
0.062492 2.614304 -0.285337
0.048865 2.594355 -0.285798
0.052852 2.575101 -0.283279
0.064247 2.597832 -0.284503
0.070168 2.580409 -0.282910
0.030989 2.542664 -0.259170
0.045539 2.553485 -0.273093
0.048863 2.531607 -0.266641
0.058205 2.559325 -0.281559
0.062389 2.543660 -0.278129
0.073357 2.563633 -0.282232
0.068635 2.522541 -0.271952
0.085028 2.519883 -0.275550
-0.006459 2.585482 -0.219973
0.001715 2.572728 -0.226314
0.007543 2.566526 -0.211697
0.009497 2.560843 -0.232242
0.032910 2.471814 -0.220658
0.029178 2.485612 -0.212424
0.027227 2.492643 -0.228831
0.032897 2.471899 -0.203745
0.014150 2.562952 -0.197496
0.018478 2.547328 -0.238997
0.029166 2.544388 -0.187031
0.024564 2.535863 -0.210153
0.027041 2.562719 -0.150215
0.056044 2.547737 -0.139498
0.046827 2.535881 -0.157964
0.078623 2.542621 -0.132310
0.065893 2.532685 -0.139796
0.035578 2.519032 -0.253987
0.026218 2.521373 -0.216466
0.039820 2.506344 -0.253877
0.054079 2.513884 -0.262200
0.055989 2.506737 -0.260517
0.058967 2.495581 -0.258218
0.034575 2.478806 -0.235421
0.087478 2.510688 -0.274928
0.058562 2.501246 -0.161233
0.061666 2.487007 -0.159225
0.042721 2.476277 -0.185843
0.052692 2.458013 -0.176316
0.053998 2.472736 -0.171456
0.067227 2.468716 -0.158045
0.072821 2.499990 -0.142117
0.069085 2.485139 -0.150778
0.037562 2.759279 -0.289286
0.033446 2.752953 -0.291478
0.042430 2.763732 -0.270773
0.044651 2.749393 -0.277090
0.035623 2.748836 -0.241875
0.054876 2.715710 -0.275311
0.033520 2.735192 -0.212995
0.039176 2.728308 -0.233760
0.037727 2.721381 -0.219319
0.034393 2.728882 -0.198563
0.034850 2.722461 -0.184130
0.041474 2.709294 -0.190465
0.049255 2.713391 -0.242826
0.042559 2.707737 -0.225646
0.051895 2.682206 -0.203122
0.065073 2.696952 -0.267225
0.067692 2.682718 -0.273542
0.067575 2.691076 -0.252800
0.063351 2.683409 -0.238347
0.073557 2.671195 -0.244697
0.068284 2.663250 -0.230239
0.078513 2.664126 -0.265459
0.046037 2.697424 -0.161614
0.044612 2.703587 -0.176043
0.051790 2.690567 -0.182380
