ply
format ascii 1.0
comment VCGLIB generated
element vertex 1659
property float x
property float y
property float z
element face 0
property list uchar int vertex_indices
end_header
-0.339757 2.028430 0.174099
-0.334726 2.014396 0.175059
-0.346318 2.027909 0.178369
-0.120002 0.002703 0.006661
-0.347961 2.015253 0.185170
-0.114047 -0.013626 0.008361
-0.359627 2.055444 0.183499
-0.355973 2.041381 0.183916
-0.352424 2.027316 0.184290
-0.329406 2.001356 0.177083
-0.077375 -0.022137 -0.024137
-0.334177 1.984787 0.188175
-0.341429 1.999268 0.186579
-0.083893 -0.036467 -0.027659
-0.326500 1.971303 0.190421
-0.089683 -0.022523 -0.014366
-0.118281 -0.161997 0.146615
-0.111604 -0.169568 0.165251
-0.108576 -0.161351 0.157143
-0.106975 -0.156045 0.152800
-0.092414 -0.037444 -0.015910
-0.089921 -0.050686 -0.031146
-0.452702 2.125164 0.133983
-0.449712 2.125078 0.137866
-0.453711 2.127066 0.136436
-0.450705 2.124212 0.152665
-0.458959 2.127872 0.149684
-0.116365 -0.145457 0.134983
-0.095126 -0.066759 -0.034360
-0.109808 -0.131401 0.121959
-0.104443 -0.146347 0.145868
-0.477738 2.151918 0.144044
-0.433827 2.098016 0.126216
-0.433134 2.097992 0.127165
-0.434208 2.101471 0.126995
-0.446381 2.112090 0.118682
-0.440159 2.111985 0.125417
-0.448150 2.119034 0.122786
-0.102493 -0.139090 0.140541
-0.095020 -0.051640 -0.017967
-0.433380 2.083858 0.125851
-0.433188 2.083852 0.126117
-0.433380 2.082338 0.125931
-0.099887 -0.131265 0.133520
-0.097846 -0.163201 0.168636
-0.436252 2.111810 0.131616
-0.434014 2.111270 0.143037
-0.440206 2.119598 0.141207
-0.430931 2.097195 0.143227
-0.439194 2.110316 0.156184
-0.445442 2.120089 0.154436
-0.436018 2.096242 0.156412
-0.430888 2.083055 0.142219
-0.098441 -0.065854 -0.020345
-0.436545 2.065899 0.137893
-0.433908 2.082145 0.156218
-0.429849 2.068332 0.156721
-0.440872 2.069546 0.122056
-0.085305 -0.168052 0.175707
-0.105470 -0.024425 -0.004847
-0.082059 -0.160757 0.167097
-0.093941 -0.152606 0.158177
-0.080608 -0.156070 0.163170
-0.092155 -0.146230 0.153312
-0.089433 -0.136262 0.145883
-0.088055 -0.131232 0.142121
-0.078206 -0.145806 0.156533
-0.076248 -0.136328 0.151065
-0.075242 -0.131017 0.148231
-0.097867 -0.125502 0.128093
-0.082085 -0.117122 0.134339
-0.072836 -0.116333 0.141348
-0.427160 2.054373 0.150254
-0.424984 2.054055 0.157689
-0.425465 2.040445 0.146710
-0.421290 2.039990 0.158121
-0.424188 2.026440 0.144234
-0.418144 2.025918 0.158336
-0.423179 2.012386 0.142432
-0.414494 2.011623 0.158876
-0.396778 1.955994 0.155756
-0.393703 1.955732 0.162853
-0.400016 1.968891 0.162210
-0.411933 1.998070 0.153297
-0.410473 1.997798 0.159313
-0.409800 1.984223 0.148642
-0.406454 1.983743 0.159872
-0.422143 1.998336 0.140568
-0.102882 -0.038511 -0.004851
-0.421209 1.984267 0.138962
-0.408624 1.970200 0.146420
-0.407505 1.956164 0.144342
-0.420713 1.970118 0.138468
-0.420068 1.955996 0.137598
-0.072192 -0.109545 0.139351
-0.112060 -0.025410 0.007744
-0.438403 2.054448 0.140155
-0.438199 2.040245 0.140401
-0.450745 2.058470 0.132621
-0.451565 2.054169 0.134928
-0.452219 2.039808 0.137359
-0.437549 2.026124 0.139516
-0.436803 2.012021 0.138388
-0.451567 2.025688 0.136468
-0.450445 2.011654 0.134384
-0.110953 -0.039528 0.007154
-0.102567 -0.052645 -0.005753
-0.232421 1.865245 0.128201
-0.244588 1.853807 0.122985
-0.246567 1.865791 0.122677
-0.106814 -0.067878 -0.005778
-0.110906 -0.053668 0.006146
-0.262594 1.891196 0.148725
-0.265116 1.891887 0.134350
-0.268143 1.905568 0.141275
-0.266714 1.905249 0.148125
-0.264404 1.889811 0.132658
-0.240291 1.850938 0.124066
-0.111713 -0.060096 0.005362
-0.246563 1.863255 0.153002
-0.260212 1.864309 0.123417
-0.261695 1.878277 0.126421
-0.259846 1.850136 0.123255
-0.113065 -0.067855 0.004266
-0.096758 0.139889 0.110984
-0.087215 0.139707 0.121679
-0.260589 1.903690 0.180930
-0.264076 1.904342 0.166498
-0.263622 1.917767 0.180759
-0.096311 0.125730 0.110614
-0.087295 0.125546 0.120951
-0.284168 1.945332 0.179713
-0.270698 1.945969 0.178745
-0.285683 1.931468 0.188329
-0.268718 1.932844 0.180733
-0.095890 0.111567 0.110314
-0.087357 0.111386 0.120226
-0.284890 1.929766 0.203773
-0.292297 1.931941 0.201016
-0.266160 1.916868 0.194949
-0.273596 1.924936 0.192609
-0.095568 0.097385 0.110261
-0.090280 0.097254 0.116744
-0.279911 1.928250 0.208421
-0.301440 1.941615 0.182015
-0.307280 1.941653 0.195827
-0.258198 1.876303 0.164627
-0.255246 1.878752 0.150712
-0.262403 1.889247 0.164563
-0.258039 1.889604 0.180909
-0.255808 1.875510 0.180763
-0.085100 0.097168 0.122330
-0.105753 0.140236 0.097757
-0.252853 1.862276 0.165711
-0.105488 0.126087 0.097069
-0.114980 0.141840 0.079793
-0.114868 0.126677 0.079176
-0.105183 0.111942 0.096361
-0.349565 1.859373 0.142711
-0.342095 1.845708 0.138930
-0.343024 1.847530 0.144423
-0.358280 1.873329 0.140296
-0.356330 1.872525 0.156259
-0.358441 1.873594 0.140252
-0.363813 1.887834 0.153936
-0.104873 0.096047 0.095616
-0.362204 1.885696 0.170158
-0.369367 1.901851 0.167670
-0.114328 0.112543 0.078433
-0.355767 1.871506 0.171936
-0.113045 0.095013 0.077237
-0.342194 1.844545 0.159788
-0.349690 1.858877 0.157693
-0.095234 0.083208 0.110177
-0.091200 0.083094 0.115355
-0.348952 1.857697 0.173338
-0.341392 1.843534 0.175554
-0.093296 0.068989 0.112029
-0.260313 1.821568 0.125976
-0.084853 0.082972 0.122469
-0.084571 0.068784 0.122518
-0.294551 1.734105 0.140256
-0.291781 1.733333 0.156288
-0.299173 1.750803 0.153401
-0.303538 1.760928 0.161566
-0.302308 1.760547 0.169378
-0.306301 1.766696 0.168254
-0.298672 1.758982 0.186811
-0.308897 1.773860 0.180156
-0.294658 1.746175 0.178443
-0.292313 1.745773 0.187491
-0.291335 1.733079 0.171160
-0.288042 1.731723 0.188151
-0.295512 1.746550 0.171035
-0.084304 0.054591 0.122608
-0.084114 0.040386 0.122896
-0.093603 0.054813 0.111390
-0.325759 1.818092 0.137619
-0.326883 1.817432 0.148587
-0.329903 1.823335 0.147829
-0.319573 1.790151 0.134228
-0.322380 1.803388 0.149339
-0.318798 1.789322 0.149727
0.010084 1.487499 -0.039351
-0.327211 1.816581 0.163652
-0.334951 1.831705 0.161059
-0.094344 0.039868 0.110896
-0.330567 1.829665 0.181082
-0.325981 1.818770 0.178682
-0.104552 0.083650 0.094962
-0.322712 1.802419 0.166490
-0.320077 1.801747 0.180634
-0.319592 1.792057 0.163628
-0.313410 1.784207 0.182975
-0.104062 0.069514 0.094225
-0.112181 0.084350 0.076431
-0.334257 1.831417 0.146703
-0.111291 0.070243 0.075480
-0.308677 1.762130 0.135947
-0.308501 1.762104 0.136546
-0.308889 1.762845 0.136448
-0.103934 0.055353 0.093634
-0.304502 1.761345 0.153318
-0.313949 1.777527 0.149905
-0.104255 0.041163 0.093248
-0.110908 0.054566 0.074872
-0.315388 1.776099 0.134854
-0.304317 1.748693 0.125634
-0.301192 1.748118 0.138406
-0.111105 0.041910 0.074511
-0.294626 1.734117 0.139972
-0.311203 1.774498 0.166893
-0.119670 0.143276 0.032254
0.003010 1.278242 -0.111644
0.013771 1.264628 -0.113813
0.014383 1.278982 -0.116135
-0.394390 1.942194 0.150455
-0.386052 1.940319 0.166381
-0.392760 1.928002 0.146036
-0.381787 1.927839 0.163059
-0.119467 0.129139 0.031307
-0.375878 1.900737 0.144377
-0.370951 1.900495 0.152538
-0.379827 1.913604 0.150446
-0.374789 1.913711 0.167243
-0.122159 0.142379 0.046464
-0.390568 1.914417 0.142273
-0.388256 1.900604 0.137162
-0.121941 0.128242 0.045523
-0.117362 0.115043 0.031112
-0.405100 1.928126 0.139764
-0.406040 1.939224 0.141548
-0.407065 1.942140 0.141566
-0.419036 1.941946 0.135741
-0.419775 1.951996 0.137072
-0.403927 1.914103 0.137549
-0.371164 1.887195 0.136235
-0.372264 1.888414 0.135890
0.029446 1.265371 -0.114976
-0.115309 0.100946 0.030895
-0.120068 0.114141 0.045236
-0.071843 -0.175436 0.179311
-0.076777 -0.180972 0.193377
0.029022 1.277062 -0.117080
-0.074588 -0.160331 0.165229
-0.066915 -0.167892 0.167698
0.017441 1.293471 -0.118974
-0.058382 -0.180940 0.185361
-0.117752 0.099889 0.047982
-0.055684 -0.174768 0.170479
-0.064970 -0.159754 0.162336
-0.048053 -0.158553 0.160687
-0.060713 -0.144350 0.156921
-0.121280 0.141650 0.060234
-0.061851 -0.130696 0.152874
-0.121198 0.127478 0.059839
-0.048659 -0.144653 0.158785
-0.048468 -0.130377 0.157532
-0.040036 -0.179761 0.177409
-0.045196 -0.181030 0.190542
-0.026835 -0.180180 0.182572
-0.036045 -0.169767 0.166764
-0.034660 -0.158461 0.162647
-0.117238 0.099215 0.060519
-0.119861 0.113419 0.058367
-0.034645 -0.144217 0.161843
-0.035063 -0.130054 0.162138
-0.020171 -0.143696 0.163732
-0.020913 -0.129592 0.164849
-0.060781 -0.116258 0.149387
-0.067345 -0.101923 0.141811
-0.060357 -0.101939 0.147538
-0.048234 -0.116093 0.156170
-0.048304 -0.101866 0.155581
-0.062108 -0.087710 0.145621
-0.048637 -0.087686 0.155662
-0.048933 -0.073500 0.155644
-0.035316 -0.115859 0.162014
-0.035642 -0.101679 0.162076
-0.021530 -0.115465 0.165651
-0.021970 -0.101305 0.165999
-0.036038 -0.087510 0.162315
-0.036299 -0.073318 0.162209
-0.022256 -0.087118 0.165962
-0.022398 -0.072904 0.165555
-0.114898 0.086813 0.030031
-0.115217 0.072665 0.028878
-0.116419 0.085844 0.046283
-0.116018 0.071698 0.045643
-0.115045 0.058528 0.027918
-0.181680 3.299857 -1.119643
-0.190876 3.300161 -1.132257
-0.180557 3.302172 -1.119930
-0.193303 3.285840 -1.125811
-0.114546 0.044397 0.027089
-0.004139 -0.128899 0.165421
-0.115666 0.057546 0.045104
-0.115434 0.043376 0.044766
-0.192856 1.654527 0.118433
-0.004442 -0.114776 0.166540
-0.005707 -0.100643 0.166729
-0.115521 0.085111 0.060170
-0.114660 0.070987 0.059484
-0.007519 -0.087802 0.166371
-0.200352 3.300354 -1.143103
-0.188750 3.307359 -1.138030
-0.202355 3.285952 -1.140994
-0.201535 3.298171 -1.143727
-0.114313 0.056853 0.058594
-0.114476 0.042709 0.057502
-0.197464 3.271288 -1.128823
-0.202353 3.271711 -1.140229
-0.201979 3.257052 -1.131633
-0.203813 3.257200 -1.135749
-0.204736 3.251616 -1.133112
-0.192325 1.626143 0.118614
0.030596 1.294065 -0.119432
0.042686 1.265494 -0.112373
0.055459 1.267357 -0.106902
0.044166 1.280179 -0.114481
-0.083947 0.026176 0.123237
-0.083746 0.011972 0.123493
-0.095003 0.026415 0.110358
0.056970 1.280391 -0.108349
0.044582 1.294496 -0.116306
-0.095111 0.012244 0.109760
-0.190744 3.163150 -0.966236
-0.187343 3.161716 -0.979892
-0.192695 3.171069 -0.966429
-0.195458 3.162542 -0.958972
-0.175892 3.283355 -1.073699
-0.177399 3.284144 -1.089072
-0.177073 3.285274 -1.089277
-0.174829 3.299207 -1.102639
-0.083551 -0.002233 0.123764
-0.077620 -0.002309 0.129748
-0.184150 3.282832 -1.108169
-0.173758 3.299018 -1.098409
-0.180764 3.265925 -1.077666
-0.081694 -0.016470 0.125910
-0.177730 3.268328 -1.060260
-0.178620 3.254169 -1.061638
-0.182498 3.254839 -1.076705
-0.181425 3.239968 -1.063771
-0.183494 3.240258 -1.070592
-0.186428 3.226940 -1.064595
-0.183407 3.269898 -1.092886
-0.186710 3.270297 -1.102632
-0.187690 3.255728 -1.096717
-0.189740 3.270608 -1.110581
-0.194507 3.271009 -1.121494
-0.094877 -0.001907 0.109100
-0.196015 3.253597 -1.114972
-0.094753 -0.016066 0.108475
-0.189279 3.245097 -1.096357
-0.199163 3.242007 -1.114231
-0.104561 0.026973 0.092868
-0.195113 3.227225 -1.100590
-0.199018 3.227453 -1.107723
-0.103114 0.012699 0.095366
-0.185440 3.240727 -1.080550
-0.191643 3.223320 -1.085484
-0.111481 0.027706 0.074309
-0.111549 0.013529 0.073890
-0.105844 0.012922 0.089244
-0.200273 3.212870 -1.103691
-0.196576 3.209845 -1.073003
-0.196225 3.212216 -1.086863
-0.102627 -0.001452 0.094893
-0.204117 3.197960 -1.091976
-0.102201 -0.015615 0.094578
-0.204784 3.197048 -1.076077
-0.111068 -0.000609 0.073182
-0.105527 -0.001213 0.088342
-0.204808 3.196384 -1.091389
-0.209740 3.189880 -1.078548
-0.174857 3.253404 -1.044958
-0.176002 3.253730 -1.051721
-0.176806 3.236881 -1.047602
-0.110419 -0.014738 0.072431
-0.105289 -0.015349 0.087408
-0.176789 3.238377 -1.031555
-0.176518 3.252524 -1.030422
-0.181011 3.222042 -1.035879
-0.181450 3.224981 -1.049615
-0.180348 3.237456 -1.017767
-0.179606 3.251613 -1.016448
-0.183093 3.223257 -1.019879
-0.182542 3.236565 -1.003442
-0.180854 3.250742 -1.001747
-0.185503 3.222361 -1.005637
-0.190663 3.211192 -1.053586
-0.187332 3.209870 -1.037772
-0.194792 3.197162 -1.039660
-0.187336 3.209540 -1.021911
-0.188537 3.208155 -1.007863
-0.191422 3.194226 -1.009694
-0.193782 3.194747 -1.026154
-0.199466 3.181251 -1.028877
-0.194660 3.179742 -1.012335
-0.197190 3.165548 -1.014361
-0.200769 3.165864 -1.022836
-0.202272 3.196380 -1.059756
-0.205802 3.178997 -1.047881
-0.213827 3.180221 -1.066282
-0.210680 3.166950 -1.050073
-0.216638 3.167237 -1.059861
-0.204132 3.166244 -1.032295
-0.207679 3.166741 -1.043952
-0.206540 3.242456 -1.128051
-0.207215 3.227813 -1.120562
-0.208459 3.227861 -1.122406
-0.208749 3.223842 -1.121454
-0.209214 3.213481 -1.119720
-0.205393 3.198724 -1.106704
-0.214216 3.182705 -1.080829
0.057468 1.294725 -0.110383
0.065955 1.210797 -0.091492
-0.219927 3.167598 -1.068918
-0.218843 3.168466 -1.083683
0.067411 1.223205 -0.093140
0.077685 1.208708 -0.079805
0.077135 1.223193 -0.085380
0.067849 1.237525 -0.095020
-0.187721 3.221469 -0.991321
-0.184496 3.235770 -0.990680
-0.191093 3.220553 -0.977460
-0.189883 3.226628 -0.976542
-0.190184 3.207275 -0.993321
-0.191285 3.193110 -0.994781
-0.192954 3.206371 -0.979221
-0.192997 3.192230 -0.980266
-0.190818 3.178980 -0.995625
-0.192575 3.179467 -1.005752
-0.189379 3.164869 -0.996083
-0.192462 3.165247 -1.005271
-0.190939 3.178132 -0.980479
-0.199941 3.162110 -0.954676
-0.202651 3.190334 -0.953692
-0.082376 -0.030660 0.125220
-0.083137 -0.043756 0.124634
-0.093157 -0.030336 0.111035
-0.093217 -0.044589 0.111957
-0.084459 -0.059076 0.123955
-0.082966 -0.073329 0.126114
-0.093421 -0.058867 0.113245
-0.093548 -0.073131 0.114333
-0.088330 -0.073242 0.120384
-0.102069 -0.029831 0.095013
-0.096989 -0.030159 0.104853
-0.102359 -0.044126 0.096517
-0.098893 -0.044339 0.103074
-0.109464 -0.029044 0.075125
-0.105781 -0.029500 0.086187
-0.109823 -0.043352 0.076809
-0.107356 -0.043675 0.084539
-0.102207 -0.058499 0.099787
-0.109997 -0.057792 0.081023
-0.111061 -0.071099 0.081202
-0.103377 -0.070167 0.099697
-0.179702 3.121807 -0.980149
-0.183320 3.122060 -0.987527
-0.184021 3.135960 -0.982697
-0.178338 3.107694 -0.980638
-0.182387 3.107993 -0.989131
-0.187560 3.149077 -0.966006
-0.185657 3.150024 -0.981561
-0.182995 3.135033 -0.965230
-0.194179 3.148091 -0.953426
-0.197235 3.155486 -0.954092
-0.186339 3.134117 -0.951357
-0.180469 3.120101 -0.950066
-0.177573 3.120410 -0.963684
-0.182814 3.126826 -0.950500
-0.177264 3.106028 -0.949828
-0.175370 3.107008 -0.965985
-0.179908 3.093520 -0.982284
-0.182437 3.093742 -0.988237
-0.182996 3.076649 -0.985035
-0.175558 3.091923 -0.950180
-0.175054 3.092840 -0.966278
-0.174734 3.077800 -0.950883
-0.174276 3.078713 -0.966940
-0.173817 3.063678 -0.951547
-0.172761 3.064622 -0.967694
-0.170070 3.049617 -0.951094
-0.171524 3.050502 -0.968131
-0.184422 3.065082 -0.985042
-0.183902 3.050749 -0.982212
-0.190867 3.133176 -0.937953
-0.182281 3.119218 -0.935589
-0.188133 3.129265 -0.937162
-0.178278 3.105162 -0.935035
-0.177157 3.104655 -0.925063
-0.115056 0.030246 0.025861
-0.177331 3.091041 -0.935687
-0.179395 3.076857 -0.937530
-0.176931 3.090456 -0.924870
-0.180170 3.075994 -0.922643
-0.178193 3.083662 -0.921309
-0.181841 3.062662 -0.939523
-0.181045 3.048537 -0.940236
-0.182123 3.061812 -0.924442
-0.181334 3.047688 -0.925157
-0.180178 3.047135 -0.914312
-0.117644 0.016469 0.016254
-0.116482 0.016075 0.024271
-0.115794 0.029385 0.040763
-0.116137 0.015236 0.039600
-0.117281 0.002296 0.016097
-0.116306 0.001937 0.023314
-0.114718 -0.012170 0.022914
-0.115599 0.001107 0.038786
-0.114645 -0.013014 0.038136
-0.115695 0.028920 0.049215
-0.115090 0.028555 0.056233
-0.131127 3.035495 -0.922195
-0.133236 3.035415 -0.922381
-0.129978 3.049948 -0.925878
-0.137566 3.049463 -0.923066
-0.131234 3.032871 -0.921779
-0.146388 3.034290 -0.912382
-0.148314 3.048389 -0.912117
-0.132281 3.021042 -0.918490
-0.143192 3.020217 -0.912148
-0.122237 3.009093 -0.904712
-0.155829 3.018846 -0.897312
-0.154467 3.024127 -0.901045
-0.152160 3.033763 -0.907406
-0.115670 0.014524 0.052780
-0.123319 2.992063 -0.901057
-0.136433 2.991793 -0.906403
-0.122527 3.006450 -0.903836
-0.147799 2.990991 -0.900829
-0.158050 3.004194 -0.890901
-0.158235 2.990688 -0.889701
-0.158034 2.989929 -0.889678
-0.124376 2.977627 -0.897602
-0.118524 2.977473 -0.890294
-0.125732 2.969320 -0.893721
-0.120388 2.962448 -0.876864
-0.127219 2.962862 -0.889608
-0.117683 2.967445 -0.875437
-0.115246 2.977161 -0.882128
-0.130164 2.948715 -0.881387
-0.137891 2.977283 -0.901929
-0.139006 2.971459 -0.898788
-0.141399 2.962395 -0.892244
-0.144184 2.976928 -0.900428
-0.154638 2.975860 -0.889362
-0.149855 2.961820 -0.888500
-0.143742 2.950058 -0.885647
-0.168547 3.036353 -0.966713
-0.172922 3.036385 -0.970672
-0.173372 3.022337 -0.969562
-0.166856 3.035544 -0.950852
-0.165973 3.021422 -0.951530
-0.183700 3.036546 -0.981955
-0.183875 3.022272 -0.980745
-0.169265 3.007210 -0.953857
-0.174566 3.007599 -0.964959
-0.115060 0.000396 0.051981
-0.174815 2.993043 -0.958747
-0.180508 3.007816 -0.973490
-0.184362 3.007941 -0.978739
-0.184903 2.993159 -0.976347
-0.114075 -0.013695 0.050826
-0.176988 2.979731 -0.958292
-0.186002 2.979158 -0.973035
-0.182124 2.964513 -0.962016
-0.187087 2.964716 -0.969507
-0.185026 2.950310 -0.964188
-0.187393 2.950418 -0.967964
-0.184706 2.936175 -0.965089
-0.186589 2.936326 -0.969239
-0.159138 3.033173 -0.902226
-0.164681 3.018070 -0.890248
-0.179532 3.046880 -0.909252
-0.179772 3.032837 -0.912223
-0.174920 3.031992 -0.893265
-0.179524 3.017753 -0.896110
-0.180938 3.019510 -0.911534
-0.160621 3.004014 -0.889673
-0.181743 3.003566 -0.898014
-0.181474 3.004292 -0.910881
-0.181416 2.989432 -0.898911
-0.180807 2.990167 -0.911679
-0.177718 3.034468 -0.939949
-0.175230 3.020380 -0.939993
-0.180402 3.033565 -0.925816
-0.180293 3.019427 -0.926799
-0.174087 3.006264 -0.940568
-0.173358 2.992137 -0.941307
-0.179567 3.005302 -0.927539
-0.178227 2.991189 -0.928037
-0.114144 -0.026300 0.022114
-0.167366 2.948997 -0.926830
-0.168970 2.949738 -0.941416
-0.172434 2.965686 -0.927610
-0.168362 2.963937 -0.940948
-0.164273 2.934921 -0.926634
-0.168330 2.935394 -0.938291
-0.179931 2.975322 -0.899352
-0.179908 2.976076 -0.912895
-0.178554 2.961210 -0.899834
-0.177145 2.962146 -0.917456
-0.174802 2.947993 -0.914573
-0.170105 2.933952 -0.913745
-0.177199 2.947098 -0.900327
-0.114434 -0.040447 0.020972
-0.175013 2.933002 -0.900491
-0.171099 2.978044 -0.941443
-0.177483 2.964338 -0.955243
-0.175969 2.977096 -0.928172
-0.114427 -0.027150 0.037195
-0.115072 -0.041305 0.035913
-0.177824 2.950033 -0.953607
-0.172097 2.935600 -0.944917
-0.177719 2.935812 -0.953104
-0.115310 -0.054607 0.019599
-0.117359 -0.066648 0.019205
-0.116446 -0.055475 0.034343
-0.118908 -0.069669 0.032345
-0.202150 3.150051 -1.017700
-0.113743 -0.027850 0.050319
-0.111099 -0.028769 0.068895
-0.218708 3.156112 -1.054019
-0.210889 3.153155 -1.035092
-0.114400 -0.043377 0.050881
-0.112069 -0.042930 0.067485
-0.208818 3.137018 -1.021006
-0.213438 3.137194 -1.027779
-0.223847 3.152246 -1.040797
-0.223365 3.135113 -1.041095
-0.208880 3.122876 -1.022057
-0.212431 3.123140 -1.029572
-0.206563 3.108784 -1.022170
-0.211023 3.109158 -1.032386
-0.216632 3.123555 -1.040312
-0.217007 3.124392 -1.055653
-0.217388 3.125583 -1.055717
-0.212599 3.109500 -1.039747
-0.209584 3.110409 -1.053748
-0.197404 3.052414 -1.022659
-0.197543 3.052532 -1.024900
-0.198602 3.059710 -1.022602
-0.202069 3.094738 -1.021421
-0.231907 3.152357 -1.059484
-0.231753 3.152927 -1.059382
-0.237290 3.160382 -1.045764
-0.234861 3.138988 -1.046363
-0.229458 3.138268 -1.059543
-0.231346 3.143500 -1.059906
-0.238974 3.151295 -1.045879
-0.115657 -0.056396 0.051511
-0.113672 -0.057106 0.065826
-0.116666 -0.070945 0.057056
-0.115268 -0.071281 0.064167
-0.195100 3.038322 -1.022777
-0.189298 3.150729 -0.997078
-0.192546 3.150990 -1.004290
-0.192902 3.136552 -1.000250
-0.203645 3.136851 -1.013991
-0.118007 -0.070494 0.047894
-0.193021 3.122379 -1.000793
-0.190627 3.108349 -1.001956
-0.203589 3.122621 -1.013365
-0.202280 3.108621 -1.015925
0.010094 1.473260 -0.038606
-0.189569 3.094258 -1.003059
-0.191019 3.077843 -1.003351
-0.200660 3.094679 -1.019274
-0.199655 3.080625 -1.021063
-0.193018 3.065704 -1.002903
-0.187387 3.050938 -0.988318
-0.192500 3.051313 -0.999036
-0.199143 3.066478 -1.021597
-0.195062 3.051620 -1.006542
-0.199913 3.080643 -1.021598
-0.187780 3.036788 -0.989500
-0.191782 3.037205 -1.000093
-0.189068 3.022620 -0.991036
-0.191760 3.022968 -0.999382
-0.193729 3.037507 -1.007043
-0.193861 3.023363 -1.008122
-0.194900 3.024185 -1.023726
-0.192025 3.008496 -0.994682
-0.195192 3.009192 -1.009675
-0.194796 3.010046 -1.024710
-0.194250 2.995751 -0.994462
-0.196180 2.995031 -1.011091
-0.197693 2.980012 -0.997523
-0.189557 2.979341 -0.979117
-0.194772 2.979689 -0.989421
-0.193571 2.965115 -0.981729
-0.195454 2.965322 -0.986923
-0.196997 2.965886 -0.998275
0.068081 1.251809 -0.096376
0.079869 1.234343 -0.084955
0.079610 1.251786 -0.087002
0.088888 1.237108 -0.071138
0.084274 1.251688 -0.081606
0.089345 1.251433 -0.073067
-0.182622 2.907939 -0.966320
-0.160825 2.910092 -0.988097
-0.183702 2.922057 -0.965720
-0.176975 2.928105 -0.993143
-0.180797 2.893837 -0.966626
-0.163155 2.920804 -0.927220
-0.168269 2.921165 -0.937683
-0.164344 2.906637 -0.928717
-0.168401 2.906900 -0.936578
-0.167521 2.892534 -0.932891
-0.166004 2.919899 -0.913151
-0.163450 2.905813 -0.913170
-0.171456 2.918938 -0.900112
-0.167927 2.904295 -0.899282
-0.165149 2.890790 -0.899675
-0.161712 2.895302 -0.913643
-0.163488 2.876684 -0.900046
-0.161169 2.876957 -0.914461
-0.169606 2.878664 -0.932680
-0.173317 2.921433 -0.946426
-0.177453 2.921620 -0.953014
-0.175876 2.907345 -0.950401
-0.175629 2.893211 -0.951370
-0.176616 2.876285 -0.951569
-0.182996 2.879648 -0.968521
-0.163343 2.862546 -0.901015
-0.163674 2.862899 -0.907609
-0.164391 2.848424 -0.903190
-0.166228 2.863330 -0.917348
-0.171359 2.863631 -0.926757
-0.173045 2.848162 -0.921265
-0.165202 2.837763 -0.903206
-0.174641 2.834782 -0.921173
-0.165643 2.819985 -0.903407
-0.172440 2.817270 -0.922657
-0.175282 2.863982 -0.936116
-0.178612 2.864442 -0.946996
-0.181301 2.849800 -0.939461
-0.181518 2.864694 -0.953772
-0.187806 2.864897 -0.962309
-0.185157 2.876153 -0.969625
-0.188948 2.850412 -0.958036
-0.180057 2.821924 -0.941050
-0.186896 2.836583 -0.963088
-0.182577 2.835442 -0.939204
-0.179938 2.821459 -0.941036
-0.168144 2.792583 -0.923239
-0.168964 2.792869 -0.929008
-0.170222 2.806747 -0.924233
-0.164997 2.805848 -0.904002
-0.164882 2.791675 -0.904376
-0.169619 2.778410 -0.924850
-0.169785 2.778476 -0.926154
-0.170096 2.775851 -0.925222
-0.167399 2.777613 -0.908780
-0.173301 2.760357 -0.912354
-0.173091 2.763625 -0.916979
-0.173836 2.807448 -0.939653
-0.169190 2.793406 -0.938845
-0.179328 2.749078 -0.915544
-0.233919 2.878564 -0.988632
-0.235260 2.878981 -0.997173
-0.238233 2.884153 -0.989923
-0.210801 2.859504 -0.980923
-0.222391 2.864965 -0.990438
-0.222007 2.866576 -0.984817
-0.203309 2.907499 -0.974489
-0.223286 2.905894 -0.951397
-0.213384 2.919217 -0.977603
-0.189976 2.879500 -0.971278
-0.204904 2.878436 -0.963748
-0.222311 2.884490 -0.953127
-0.220003 2.877496 -0.958592
-0.236058 2.933394 -0.954984
-0.225140 2.935315 -0.981057
-0.229922 2.877846 -0.971962
-0.235583 2.886564 -0.958197
-0.243426 2.892243 -0.976592
-0.245071 2.894352 -0.961364
-0.240621 2.903326 -0.928454
-0.244474 2.931525 -0.927921
-0.259798 2.900533 -0.936200
-0.201674 2.864487 -0.965736
-0.197358 2.851044 -0.975944
-0.213656 2.864427 -0.973962
-0.216482 2.870272 -0.967120
-0.197459 2.851058 -0.976287
-0.188080 2.837116 -0.973610
-0.197242 2.850780 -0.976222
-0.259575 2.907606 -1.013169
-0.269008 2.917859 -0.999581
-0.253794 2.904673 -0.994554
-0.236036 2.879364 -1.004661
-0.246110 2.893371 -1.009040
-0.246251 2.893797 -1.007631
-0.244109 2.892488 -0.991629
-0.248952 2.894076 -1.023928
-0.254876 2.900470 -1.025793
-0.262230 2.907935 -1.028144
-0.268665 2.914524 -1.030197
-0.274146 2.920679 -1.016653
-0.274373 2.920937 -1.016092
-0.279556 2.925198 -1.003198
-0.274448 2.920970 -1.016749
-0.254870 2.905771 -0.983526
-0.281382 2.916279 -0.974056
-0.260074 2.906711 -0.966368
-0.261064 2.903735 -0.951719
-0.268086 2.907917 -0.954179
-0.262421 2.902861 -0.937062
-0.273442 2.911213 -0.940791
-0.281544 2.914281 -0.959010
-0.289760 2.920008 -0.977080
-0.285269 2.917360 -0.960251
-0.121451 2.947534 -0.864823
-0.124841 2.933226 -0.865483
-0.131942 2.933508 -0.876068
-0.121832 2.942809 -0.863603
-0.160224 2.960755 -0.877403
-0.163453 2.960474 -0.874860
-0.146139 2.933037 -0.878655
-0.157177 2.946678 -0.877226
-0.152716 2.932634 -0.876492
-0.165797 2.945652 -0.865437
-0.166765 2.946763 -0.865738
-0.161620 2.931599 -0.864815
-0.176783 2.960403 -0.883942
-0.167477 2.945615 -0.866101
-0.175590 2.946229 -0.883435
-0.172113 2.931376 -0.868960
-0.174179 2.930911 -0.884894
-0.133445 2.917667 -0.870233
-0.123183 2.918734 -0.858885
-0.123966 2.904347 -0.856126
-0.135206 2.904423 -0.866235
-0.131281 2.889820 -0.855914
-0.139816 2.889229 -0.859568
-0.124984 2.895140 -0.853051
-0.125994 2.889733 -0.850204
-0.129491 2.874874 -0.841041
-0.140606 2.874944 -0.850969
-0.129344 2.875366 -0.840948
-0.129421 2.874859 -0.840725
-0.140217 2.918757 -0.872583
-0.147484 2.926328 -0.874890
-0.150253 2.918038 -0.867431
-0.148281 2.903600 -0.861601
-0.152015 2.910527 -0.862567
-0.156859 2.917559 -0.863961
-0.154077 2.903090 -0.856943
-0.166838 2.902886 -0.863184
-0.154966 2.888686 -0.853915
-0.155581 2.873627 -0.851547
-0.165141 2.889044 -0.868275
-0.164344 2.874934 -0.869248
-0.132941 2.859967 -0.831007
-0.132704 2.859819 -0.828144
-0.133575 2.852651 -0.829008
-0.142157 2.866850 -0.846606
-0.143367 2.860194 -0.843184
-0.134343 2.845643 -0.829818
-0.144833 2.845683 -0.838691
-0.133331 2.831523 -0.830446
-0.144986 2.831413 -0.837534
-0.145398 2.817436 -0.836101
-0.156932 2.860060 -0.851310
-0.156334 2.845711 -0.848137
-0.163430 2.860831 -0.870246
-0.158610 2.845972 -0.854595
-0.162499 2.846730 -0.871254
-0.156498 2.831439 -0.846950
-0.157573 2.817000 -0.843453
-0.159569 2.831810 -0.856001
-0.161891 2.832601 -0.872032
-0.162344 2.817610 -0.858124
-0.162107 2.818388 -0.871944
-0.126031 2.816692 -0.813397
-0.132376 2.817350 -0.830142
-0.168771 2.904008 -0.884885
-0.171609 2.918235 -0.887582
-0.169974 2.917280 -0.869141
-0.167093 2.903200 -0.869031
-0.167604 2.889893 -0.885452
-0.167088 2.875763 -0.886274
-0.165845 2.861647 -0.886811
-0.163601 2.847554 -0.886952
-0.162399 2.833439 -0.887504
-0.162444 2.819297 -0.888549
-0.158672 2.806350 -0.841865
-0.165276 2.803451 -0.861102
-0.158753 2.788513 -0.842741
-0.164666 2.789323 -0.861911
-0.162284 2.775187 -0.861180
-0.160766 2.775951 -0.873730
-0.161534 2.761063 -0.861911
-0.161823 2.761403 -0.868260
-0.157542 2.774410 -0.843514
-0.156558 2.760304 -0.844381
-0.161869 2.747008 -0.864741
-0.156189 2.746162 -0.845113
-0.156568 2.731963 -0.845410
-0.161041 2.732896 -0.865670
-0.158820 2.718696 -0.863919
-0.159856 2.719044 -0.870959
-0.156822 2.704598 -0.864158
-0.158255 2.705275 -0.877443
-0.155971 2.717814 -0.845822
-0.154216 2.703768 -0.847180
-0.126518 2.802541 -0.814616
-0.133609 2.802881 -0.826239
-0.127605 2.788377 -0.816072
-0.134386 2.788497 -0.823498
-0.124776 2.802360 -0.810014
-0.146221 2.802704 -0.832859
-0.146400 2.788430 -0.831636
-0.126750 2.774254 -0.816761
-0.134106 2.774308 -0.823441
-0.133235 2.760228 -0.824890
-0.146042 2.774255 -0.831782
-0.145148 2.760178 -0.833288
-0.132810 2.746066 -0.825203
-0.135450 2.732531 -0.822724
-0.144583 2.746043 -0.833954
-0.145250 2.731679 -0.831493
-0.138475 2.716904 -0.809894
-0.147282 2.718189 -0.828491
-0.146832 2.702276 -0.814633
-0.148408 2.702613 -0.821930
-0.136272 2.701656 -0.795271
-0.141417 2.701754 -0.801017
-0.150564 2.703042 -0.831300
-0.162428 2.805156 -0.889569
-0.162141 2.791020 -0.890482
-0.162471 2.804310 -0.874393
-0.161505 2.790191 -0.875038
-0.163368 2.776854 -0.891994
-0.165303 2.777153 -0.898864
-0.166985 2.762908 -0.894314
-0.162536 2.761887 -0.877500
-0.164684 2.747699 -0.879375
-0.168250 2.748127 -0.889836
-0.163987 2.733573 -0.880126
-0.167471 2.734029 -0.891050
-0.170935 2.748411 -0.897036
-0.175998 2.748847 -0.908826
-0.169943 2.734291 -0.897671
-0.175620 2.734676 -0.909017
-0.159191 2.706237 -0.895479
-0.160605 2.706815 -0.906969
-0.164689 2.721596 -0.896845
-0.161147 2.719492 -0.880032
-0.170617 2.720981 -0.914158
-0.173105 2.724826 -0.914856
-0.161521 2.707033 -0.911593
-0.184294 2.734831 -0.918531
0.068333 1.266096 -0.097785
0.068415 1.282174 -0.100662
0.079654 1.266035 -0.087881
0.080038 1.280346 -0.089626
0.075951 1.294779 -0.097005
0.080708 1.294712 -0.092093
0.069536 1.294801 -0.102376
-0.686655 3.573229 -0.811196
-0.686285 3.573629 -0.818123
-0.687519 3.556640 -0.813552
-0.688724 3.574874 -0.842399
-0.686066 3.574086 -0.826156
-0.684924 3.559969 -0.826733
-0.685799 3.560796 -0.842271
-0.689049 3.544896 -0.814195
-0.685294 3.545820 -0.827905
0.087986 1.265793 -0.077043
0.089759 1.283080 -0.076824
-0.155740 2.690480 -0.864757
-0.156798 2.691223 -0.878933
-0.155817 2.676337 -0.865814
-0.156525 2.677057 -0.879315
-0.153091 2.689680 -0.848304
-0.152981 2.675510 -0.848741
-0.155789 2.662196 -0.866831
-0.156502 2.662868 -0.879453
-0.154909 2.648075 -0.867509
-0.155847 2.648747 -0.880325
-0.152708 2.661354 -0.849279
-0.151810 2.647249 -0.850247
-0.154514 2.633941 -0.868382
-0.155448 2.634412 -0.877559
-0.155684 2.619917 -0.872412
-0.151308 2.633112 -0.850953
-0.151701 2.618898 -0.851006
-0.152767 2.604852 -0.854553
-0.156164 2.605690 -0.872249
-0.152249 2.590722 -0.855374
-0.155086 2.591598 -0.873339
-0.148532 2.688208 -0.818300
-0.142422 2.695487 -0.798138
-0.144718 2.687219 -0.797521
-0.144247 2.672750 -0.792291
-0.147780 2.673129 -0.801870
-0.148346 2.674045 -0.818772
-0.145218 2.658329 -0.789054
-0.145774 2.652447 -0.787328
-0.148884 2.658964 -0.803332
-0.148805 2.659423 -0.818557
-0.149583 2.644809 -0.804636
-0.148951 2.645608 -0.818529
-0.148650 2.643984 -0.789074
-0.149921 2.688914 -0.832073
-0.149605 2.674781 -0.832975
-0.149708 2.660637 -0.834043
-0.149248 2.646505 -0.834889
-0.149297 2.630673 -0.805549
-0.148283 2.631486 -0.819359
-0.148047 2.616559 -0.806082
-0.147319 2.617396 -0.820562
-0.150877 2.629794 -0.790979
-0.150483 2.615662 -0.791851
-0.146368 2.602454 -0.806447
-0.146494 2.603290 -0.821574
-0.145565 2.588329 -0.807155
-0.146508 2.589106 -0.821853
-0.148818 2.601557 -0.792221
-0.146949 2.587456 -0.792510
-0.148647 2.632377 -0.835678
-0.148802 2.618232 -0.836767
-0.149428 2.604079 -0.838040
-0.151494 2.604509 -0.847394
-0.150010 2.589924 -0.839297
-0.151300 2.590304 -0.847123
-0.157194 2.692139 -0.895718
-0.158937 2.692883 -0.910441
-0.156857 2.678004 -0.896611
-0.158634 2.678697 -0.910445
-0.159176 2.692942 -0.911693
-0.159037 2.678804 -0.912665
-0.156562 2.663871 -0.897521
-0.158035 2.664567 -0.911199
-0.155615 2.649749 -0.898175
-0.156738 2.650566 -0.913731
-0.155732 2.634761 -0.884054
-0.178574 2.610142 -0.894828
-0.157206 2.620589 -0.885663
-0.173748 2.606096 -0.893222
-0.164812 2.596759 -0.890387
-0.160692 2.606374 -0.888066
-0.165270 2.592027 -0.888970
-0.183413 2.604726 -0.882283
-0.177216 2.591035 -0.880427
-0.188163 2.590456 -0.868636
-0.192156 2.618999 -0.884273
-0.202696 2.617135 -0.873763
-0.197632 2.625470 -0.885957
-0.213918 2.631833 -0.876647
-0.186111 2.619973 -0.897080
-0.193795 2.603979 -0.870754
-0.220814 2.617135 -0.864284
-0.217470 2.631567 -0.874623
-0.207724 2.602373 -0.861502
-0.199607 2.588869 -0.858884
-0.209778 2.588113 -0.853189
-0.225423 2.601642 -0.852805
-0.215873 2.587678 -0.850114
-0.230248 2.586289 -0.840869
-0.149354 2.577488 -0.870450
-0.151328 2.578209 -0.884964
-0.142568 2.563491 -0.868798
-0.137120 2.564452 -0.881839
-0.150753 2.576473 -0.886328
-0.149907 2.576631 -0.855476
-0.147128 2.563368 -0.855791
-0.145895 2.532117 -0.857131
-0.127727 2.536369 -0.880183
-0.145740 2.548437 -0.855884
-0.146435 2.520140 -0.858212
-0.146082 2.574177 -0.808387
-0.147064 2.574693 -0.818436
-0.146461 2.560029 -0.809563
-0.147259 2.560418 -0.817172
-0.145740 2.573340 -0.793059
-0.145091 2.559213 -0.793830
-0.145700 2.545904 -0.810290
-0.146484 2.546319 -0.818376
-0.144847 2.531780 -0.810980
-0.145882 2.532189 -0.819141
-0.144413 2.545086 -0.794589
-0.143540 2.530963 -0.795271
-0.150111 2.575781 -0.840364
-0.150185 2.576269 -0.849188
-0.149364 2.561656 -0.841095
-0.147886 2.574984 -0.824293
-0.148328 2.560834 -0.825494
-0.148388 2.547535 -0.841737
-0.148376 2.533395 -0.842759
-0.147380 2.546713 -0.826146
-0.147011 2.532580 -0.827028
-0.144916 2.517638 -0.812034
-0.146029 2.517921 -0.818002
-0.146792 2.500916 -0.814412
-0.142753 2.516838 -0.795987
-0.142593 2.502702 -0.796951
-0.143493 2.488541 -0.798332
-0.148258 2.489197 -0.813847
-0.144585 2.474378 -0.799791
-0.148376 2.474766 -0.809733
-0.149109 2.519395 -0.846893
-0.148070 2.518416 -0.828472
-0.150116 2.504231 -0.830308
-0.150503 2.506014 -0.845233
-0.146783 2.505992 -0.859378
-0.152705 2.490189 -0.835138
-0.151405 2.490907 -0.847036
-0.146354 2.491860 -0.860234
-0.152658 2.476740 -0.848558
-0.145855 2.477729 -0.861064
-0.154798 2.477125 -0.832969
-0.151274 2.475079 -0.817625
-0.183735 2.575912 -0.868835
-0.191840 2.572177 -0.859188
-0.182254 2.561802 -0.869277
-0.188973 2.560813 -0.856739
-0.197335 2.558160 -0.846073
-0.188446 2.532937 -0.865665
-0.189958 2.531666 -0.843988
-0.192117 2.545760 -0.843813
-0.186014 2.541062 -0.872263
-0.201813 2.544800 -0.832228
-0.194855 2.530716 -0.830729
-0.206349 2.530093 -0.819052
-0.210066 2.573487 -0.845716
-0.211326 2.580401 -0.848853
-0.210773 2.558659 -0.834962
-0.215887 2.565298 -0.836491
-0.218340 2.558050 -0.829887
-0.221104 2.572581 -0.838014
-0.234593 2.571412 -0.828194
-0.224825 2.557516 -0.825318
-0.214411 2.543597 -0.822232
-0.220517 2.551783 -0.824039
-0.190803 2.517508 -0.845349
-0.195049 2.508851 -0.847648
-0.191744 2.516642 -0.830528
-0.196195 2.503024 -0.844434
-0.191215 2.502512 -0.831345
-0.197355 2.515677 -0.817550
-0.190286 2.501964 -0.820772
-0.192033 2.501776 -0.816086
-0.191238 2.484408 -0.817415
-0.190435 2.487543 -0.816871
-0.153199 2.614133 -0.766464
-0.160680 2.614601 -0.780686
-0.152886 2.599951 -0.766490
-0.151376 2.585988 -0.769561
-0.155893 2.600562 -0.779822
-0.150440 2.586536 -0.778695
-0.142907 2.558414 -0.777775
-0.144151 2.558839 -0.786395
-0.146738 2.576042 -0.779334
-0.142111 2.544291 -0.778487
-0.143465 2.544726 -0.787372
-0.141672 2.530159 -0.779341
-0.142791 2.530609 -0.788313
-0.140773 2.516037 -0.780012
-0.141984 2.516518 -0.789602
-0.139984 2.501912 -0.780727
-0.141448 2.502375 -0.790197
-0.137974 2.515252 -0.763713
-0.140096 2.487770 -0.781799
-0.141465 2.488131 -0.789386
-0.141041 2.473745 -0.785648
-0.238859 2.556372 -0.815668
-0.239128 2.556722 -0.815748
-0.239231 2.556346 -0.815465
-0.222891 2.542969 -0.817551
-0.220262 2.528486 -0.810377
-0.224994 2.534755 -0.811784
-0.226416 2.528077 -0.807825
-0.230200 2.542416 -0.813274
-0.210860 2.514908 -0.806918
-0.200776 2.500618 -0.804736
-0.215332 2.499491 -0.795784
-0.195641 2.489049 -0.803555
-0.196067 2.475490 -0.804708
-0.197166 2.472213 -0.801749
-0.196002 2.471594 -0.789711
-0.201454 2.479480 -0.791282
-0.198055 2.486288 -0.800255
-0.199623 2.473206 -0.821527
-0.197061 2.472415 -0.805322
-0.205772 2.485527 -0.792543
-0.215475 2.498892 -0.795389
-0.204584 2.470566 -0.777907
-0.206340 2.471908 -0.778501
-0.206689 2.470455 -0.777540
-0.219417 2.484497 -0.784635
-0.227068 2.513355 -0.798898
-0.229391 2.515854 -0.799630
-0.233444 2.615586 -0.854999
-0.239739 2.627777 -0.856591
-0.242457 2.614865 -0.849016
-0.239630 2.600470 -0.843277
-0.244071 2.607356 -0.844524
-0.245692 2.600025 -0.840023
-0.245213 2.585364 -0.831316
-0.248505 2.589299 -0.832325
-0.248408 2.614423 -0.845717
-0.256049 2.599276 -0.834569
-0.249686 2.585048 -0.829104
-0.249178 2.570294 -0.818716
-0.253078 2.574495 -0.819945
-0.144278 2.460243 -0.800696
-0.147981 2.460598 -0.809965
-0.142542 2.446138 -0.801037
-0.146636 2.446606 -0.812621
-0.140526 2.432041 -0.801269
-0.144632 2.431792 -0.817879
-0.139423 2.417922 -0.801861
-0.141832 2.418862 -0.820632
-0.156795 2.461666 -0.836026
-0.151434 2.460934 -0.818715
-0.155399 2.461379 -0.829791
-0.148677 2.446852 -0.818655
-0.153583 2.447473 -0.833640
-0.154220 2.447579 -0.836036
-0.147202 2.433588 -0.834291
-0.152682 2.443653 -0.835716
-0.140303 2.419594 -0.832593
-0.137588 2.389679 -0.803189
-0.127461 2.391585 -0.829575
-0.138877 2.403792 -0.802671
-0.138194 2.413460 -0.832208
-0.134160 2.361389 -0.802426
-0.115110 2.363565 -0.826751
-0.135666 2.375424 -0.800669
-0.135388 2.333160 -0.806429
-0.133573 2.347257 -0.803151
-0.138309 2.445383 -0.784174
-0.140036 2.445673 -0.790714
-0.140536 2.459600 -0.786252
-0.136570 2.431280 -0.784514
-0.138790 2.431662 -0.793118
-0.136124 2.417148 -0.785365
-0.138112 2.417546 -0.794072
-0.136723 2.402995 -0.786628
-0.137953 2.403335 -0.793708
-0.136385 2.388860 -0.787522
-0.137259 2.389222 -0.794705
-0.134652 2.374756 -0.787863
-0.132686 2.360657 -0.788115
-0.132362 2.346522 -0.789013
-0.134411 2.332337 -0.790849
-0.135517 2.332580 -0.796064
-0.133839 2.303223 -0.777484
-0.135649 2.274902 -0.780254
-0.138815 2.260693 -0.782530
-0.143004 2.245752 -0.772428
-0.139217 2.259649 -0.782765
0.090885 1.294304 -0.076839
-0.147833 2.217744 -0.758688
-0.147974 2.216353 -0.758257
-0.517116 3.467790 -0.315196
-0.505376 3.453565 -0.305590
-0.507562 3.453552 -0.307064
-0.517360 3.453503 -0.313805
-0.558186 3.552246 -0.333957
-0.566575 3.552906 -0.352365
-0.557955 3.538091 -0.334570
-0.566980 3.538719 -0.352890
-0.557167 3.523982 -0.335558
-0.565366 3.524450 -0.350336
-0.555232 3.506598 -0.337035
-0.564672 3.510337 -0.351328
-0.553835 3.495857 -0.337834
-0.564016 3.496216 -0.352231
-0.552921 3.481735 -0.338481
-0.564362 3.481913 -0.350585
-0.554248 3.468767 -0.339436
-0.565122 3.467530 -0.347886
-0.563112 3.453259 -0.345006
-0.525150 3.509029 -0.297072
-0.546325 3.509422 -0.320604
-0.547343 3.514380 -0.318295
-0.553297 3.551567 -0.317937
-0.553302 3.537425 -0.318966
-0.551374 3.551213 -0.310074
-0.551291 3.536987 -0.309517
-0.550850 3.523336 -0.319024
-0.549291 3.523115 -0.313833
-0.516743 3.482098 -0.316908
-0.529024 3.481983 -0.324371
-0.543418 3.495718 -0.327228
-0.541522 3.481827 -0.331280
-0.528945 3.467757 -0.323805
-0.529225 3.453464 -0.322326
-0.541118 3.467660 -0.331540
-0.541275 3.453390 -0.330373
-0.553413 3.453300 -0.338202
-0.492244 3.439597 -0.299520
-0.505179 3.439360 -0.305321
-0.492632 3.453766 -0.299301
-0.491964 3.425408 -0.299465
-0.505389 3.425079 -0.304017
-0.516475 3.436285 -0.312099
-0.517959 3.424911 -0.310748
-0.494708 3.396420 -0.290955
-0.495043 3.396409 -0.291034
-0.521659 3.409557 -0.300551
-0.525748 3.390358 -0.289164
-0.494722 3.396314 -0.290915
-0.500406 3.366886 -0.274936
-0.513980 3.366531 -0.279110
-0.526623 3.380729 -0.288962
-0.526038 3.366456 -0.287140
-0.502979 3.352170 -0.267629
-0.515943 3.349872 -0.273239
-0.503182 3.350818 -0.267039
-0.527257 3.351990 -0.283271
-0.529879 3.338040 -0.277730
-0.529375 3.439195 -0.321176
-0.529140 3.424829 -0.317956
-0.541498 3.439108 -0.329041
-0.542048 3.424766 -0.326875
-0.536257 3.396865 -0.306475
-0.544062 3.395911 -0.320217
-0.543494 3.410754 -0.324178
-0.553641 3.439018 -0.336853
-0.554200 3.424674 -0.334666
-0.566588 3.441863 -0.346041
-0.566604 3.424535 -0.341815
-0.554679 3.410344 -0.332680
-0.552696 3.396082 -0.329962
-0.567093 3.410204 -0.339803
-0.566875 3.396002 -0.339589
-0.541668 3.381276 -0.310475
-0.545154 3.381471 -0.316676
-0.545884 3.365995 -0.313403
-0.536458 3.380925 -0.300102
-0.531804 3.366500 -0.292414
-0.536947 3.366594 -0.298092
-0.538098 3.352662 -0.295736
-0.539715 3.337600 -0.289517
-0.548258 3.352746 -0.313204
-0.545564 3.337925 -0.299901
-0.548491 3.338131 -0.305890
-0.554784 3.381811 -0.330853
-0.555349 3.367499 -0.328674
-0.566462 3.381839 -0.339873
-0.560569 3.367577 -0.334159
-0.566400 3.367609 -0.339263
-0.556198 3.353101 -0.325749
-0.555395 3.338662 -0.320790
-0.566509 3.352411 -0.337686
-0.567903 3.339085 -0.338143
-0.516050 3.233873 -0.448389
-0.516138 3.236588 -0.459476
-0.525788 3.232980 -0.439906
-0.500788 3.275021 -0.500415
-0.515764 3.291511 -0.463383
-0.516949 3.286994 -0.460139
-0.505286 3.264383 -0.488451
-0.520719 3.262115 -0.449249
-0.510430 3.250396 -0.474672
-0.519731 3.230753 -0.450064
-0.529383 3.216913 -0.409103
-0.532084 3.217569 -0.423001
-0.535036 3.222975 -0.410887
-0.527186 3.202820 -0.409263
-0.532198 3.203032 -0.416998
-0.535323 3.189455 -0.412840
-0.537813 3.229185 -0.381020
-0.540335 3.230261 -0.397527
-0.546148 3.238784 -0.383602
-0.556364 3.233866 -0.357469
-0.548456 3.227268 -0.354837
-0.542345 3.323734 -0.283527
-0.550554 3.324685 -0.302326
-0.551445 3.308813 -0.291599
-0.557545 3.324411 -0.320827
-0.568159 3.324897 -0.338524
-0.559486 3.310064 -0.320356
-0.566637 3.310602 -0.335591
-0.564562 3.295942 -0.325677
-0.567714 3.296162 -0.332085
-0.569592 3.284446 -0.326697
-0.555053 3.309441 -0.305702
-0.559282 3.295327 -0.310506
-0.554491 3.295697 -0.289757
-0.558346 3.280244 -0.293863
-0.561869 3.282305 -0.309051
-0.558437 3.226671 -0.351833
-0.560825 3.266049 -0.295870
-0.563243 3.266355 -0.303235
-0.564556 3.250872 -0.298635
-0.570103 3.266813 -0.316807
-0.573511 3.253160 -0.316817
-0.567650 3.237623 -0.300619
-0.573824 3.238070 -0.313484
-0.569306 3.223446 -0.302299
-0.573745 3.223844 -0.312917
-0.519754 3.202132 -0.391135
-0.522961 3.202587 -0.401798
-0.526621 3.216958 -0.392956
-0.520460 3.201272 -0.376221
-0.530002 3.218646 -0.378713
-0.525110 3.187065 -0.394634
-0.520343 3.187133 -0.377201
-0.529572 3.171944 -0.382389
-0.537082 3.171753 -0.400802
-0.524833 3.200334 -0.362754
-0.530061 3.192308 -0.350140
-0.523408 3.186223 -0.363218
-0.527801 3.171989 -0.365980
-0.531742 3.171060 -0.352344
-0.158507 1.029335 -0.101730
-0.156691 1.028967 -0.093698
-0.541457 3.156661 -0.388790
-0.536163 3.158400 -0.367942
-0.535646 3.156837 -0.354913
-0.540538 3.143737 -0.356173
-0.547641 3.144251 -0.374729
-0.551611 3.127897 -0.363406
-0.564533 3.198048 -0.332774
-0.547604 3.169033 -0.328223
-0.569144 3.209308 -0.303263
-0.572683 3.209799 -0.314852
-0.567803 3.195196 -0.303760
-0.570025 3.197355 -0.319731
-0.553234 3.168068 -0.315253
-0.563407 3.179645 -0.299750
-0.556162 3.167161 -0.301216
-0.539170 3.140085 -0.311753
-0.537143 3.139695 -0.324742
-0.541818 3.145469 -0.312404
-0.540495 3.139212 -0.297084
-0.547961 3.152549 -0.297840
-0.523570 3.111290 -0.292453
-0.529254 3.111918 -0.308164
-0.531256 3.126547 -0.297452
-0.224648 1.623322 0.144200
-0.236863 1.622301 0.154574
-0.232077 1.631374 0.141862
-0.531918 3.126100 -0.309915
-0.534440 3.126964 -0.327426
-0.536280 3.113862 -0.326527
-0.537279 3.141815 -0.341392
-0.542693 3.154996 -0.327310
-0.542376 3.124415 -0.345601
-0.544925 3.113087 -0.341359
-0.549108 3.113281 -0.348116
-0.554354 3.113497 -0.356073
-0.546399 3.154072 -0.313581
-0.581088 3.409785 -0.598488
-0.583799 3.410086 -0.606027
-0.582872 3.424499 -0.609153
-0.238724 1.621333 0.169026
-0.243406 1.632590 0.169023
-0.585215 3.394835 -0.601316
-0.251689 1.662209 0.189862
-0.246049 1.661911 0.199600
-0.255479 1.674918 0.196835
-0.570685 3.351015 -0.554836
-0.571057 3.365414 -0.558753
-0.565402 3.350176 -0.535629
-0.577139 3.393751 -0.583003
-0.576230 3.409334 -0.586586
-0.573281 3.409107 -0.580211
-0.568386 3.394389 -0.567079
-0.571226 3.380023 -0.566261
-0.578814 3.380619 -0.582868
-0.569076 3.386829 -0.564920
-0.587009 3.381275 -0.601063
-0.248290 1.649700 0.181928
-0.239798 1.650307 0.200771
-0.574418 3.365814 -0.568547
-0.578314 3.366226 -0.578986
-0.575653 3.351647 -0.570063
-0.578355 3.351978 -0.578115
-0.581424 3.366510 -0.586506
-0.585968 3.366964 -0.598213
-0.581626 3.352365 -0.587614
-0.585486 3.352812 -0.598671
-0.569734 3.379900 -0.562884
-0.237225 1.634246 0.193306
-0.228781 1.633937 0.205418
-0.234213 1.620365 0.186172
-0.223757 1.620027 0.204140
-0.636536 3.526803 -0.703327
-0.638085 3.526899 -0.706259
-0.637750 3.541202 -0.707878
-0.226399 1.627468 0.204828
-0.647458 3.541561 -0.721881
-0.647396 3.541557 -0.721780
-0.646988 3.527607 -0.722592
-0.656587 3.527786 -0.736588
-0.660242 3.541352 -0.728067
-0.240981 1.634582 0.184355
-0.661575 3.540411 -0.712189
-0.663016 3.540840 -0.721013
-0.665716 3.537765 -0.714009
-0.670961 3.538477 -0.700767
-0.638561 3.519483 -0.704654
-0.633480 3.497741 -0.688979
-0.639390 3.498176 -0.701405
-0.638973 3.512495 -0.703234
-0.631638 3.511922 -0.687227
-0.631119 3.497553 -0.683750
-0.630787 3.511854 -0.685363
-0.623481 3.482849 -0.668705
-0.630626 3.483402 -0.684235
-0.626213 3.497050 -0.670918
-0.621366 3.468831 -0.670329
-0.629849 3.469305 -0.685443
-0.633424 3.483600 -0.689985
-0.639085 3.483992 -0.701414
-0.632781 3.469473 -0.690758
-0.638602 3.469840 -0.701872
-0.640361 3.512581 -0.705863
-0.647733 3.513029 -0.719647
-0.642874 3.498386 -0.707884
-0.648260 3.498690 -0.717541
-0.651652 3.513185 -0.725516
-0.657453 3.513385 -0.733618
-0.656434 3.499030 -0.730000
-0.643003 3.484242 -0.708961
-0.647823 3.484530 -0.717880
-0.642278 3.470116 -0.709701
-0.646812 3.470475 -0.719684
-0.650804 3.470779 -0.728261
-0.654897 3.471133 -0.737812
-0.655628 3.484921 -0.730990
-0.633134 3.413747 -0.710199
-0.633706 3.413780 -0.711247
-0.634187 3.418343 -0.710278
-0.619708 3.457057 -0.671423
-0.630378 3.455290 -0.689173
-0.618009 3.440715 -0.672745
-0.627476 3.438782 -0.690661
-0.638241 3.455666 -0.702025
-0.637279 3.441602 -0.703701
-0.618869 3.427095 -0.672773
-0.625405 3.427255 -0.691793
-0.625285 3.412224 -0.676712
-0.626063 3.413481 -0.692133
-0.635368 3.427715 -0.707793
-0.642187 3.455977 -0.710693
-0.645949 3.456394 -0.721115
-0.641282 3.441855 -0.711362
-0.645249 3.442282 -0.722124
-0.648186 3.456694 -0.728255
-0.652117 3.457406 -0.744118
-0.646920 3.442580 -0.728781
-0.649399 3.443373 -0.744953
-0.651697 3.454692 -0.745034
-0.633529 3.403128 -0.711124
-0.630820 3.404176 -0.679474
-0.633400 3.398755 -0.696137
-0.633608 3.399558 -0.710732
-0.638201 3.390597 -0.698617
-0.635605 3.397863 -0.681815
-0.643210 3.385856 -0.685678
-0.624317 3.496656 -0.662359
-0.613578 3.468006 -0.649441
-0.614920 3.468165 -0.653319
-0.596743 3.439424 -0.633001
-0.601808 3.439546 -0.639144
-0.602430 3.453672 -0.638330
-0.604355 3.465585 -0.634096
-0.600810 3.425251 -0.636608
-0.591418 3.439313 -0.626877
-0.585378 3.424680 -0.614347
-0.591614 3.425037 -0.625608
-0.583748 3.438855 -0.612677
-0.588168 3.410480 -0.616476
-0.591929 3.410738 -0.624038
-0.582647 3.438782 -0.610492
-0.601540 3.411053 -0.637201
-0.611719 3.455938 -0.653096
-0.605146 3.467526 -0.634266
-0.610979 3.438608 -0.654053
-0.612969 3.425686 -0.653894
-0.124208 1.613722 0.139632
-0.612534 3.411236 -0.649025
-0.622364 3.409564 -0.661021
-0.592282 3.396302 -0.620053
-0.122833 1.599734 0.136903
-0.593453 3.385805 -0.619893
-0.601534 3.397308 -0.637900
-0.137632 1.613394 0.135078
-0.601024 3.382758 -0.638623
-0.588558 3.367203 -0.604518
-0.593965 3.367844 -0.620244
-0.588221 3.353070 -0.605411
-0.593298 3.353521 -0.617491
-0.601162 3.368583 -0.639127
-0.596039 3.353748 -0.623692
-0.601377 3.354181 -0.635638
-0.612355 3.397029 -0.648715
-0.611342 3.382974 -0.650521
-0.624017 3.397026 -0.657751
-0.623709 3.382841 -0.657765
-0.610292 3.368927 -0.652427
-0.604552 3.354411 -0.642246
-0.610108 3.354720 -0.652121
-0.620063 3.354926 -0.663566
-0.620583 3.354938 -0.664180
-0.620884 3.358678 -0.663616
-0.622169 3.368886 -0.660913
-0.630589 3.397125 -0.664642
-0.634112 3.397314 -0.670772
-0.636174 3.384371 -0.666868
-0.643657 3.383461 -0.684417
-0.635647 3.368708 -0.668197
-0.634296 3.363976 -0.668507
-0.645050 3.368963 -0.680111
-0.514491 3.296048 -0.543982
-0.522929 3.295359 -0.538156
-0.523250 3.305317 -0.522305
-0.531132 3.294340 -0.526201
-0.499226 3.280879 -0.514628
-0.505448 3.281326 -0.527522
-0.491048 3.290919 -0.525937
-0.495936 3.283406 -0.513152
-0.503954 3.284515 -0.531479
-0.508718 3.274109 -0.518855
-0.506606 3.296552 -0.546902
-0.517291 3.282025 -0.536137
-0.499173 3.294532 -0.544126
-0.522076 3.267179 -0.523222
-0.532987 3.280544 -0.534880
-0.535714 3.288713 -0.528413
-0.534957 3.266040 -0.529600
-0.546413 3.280216 -0.539430
-0.548827 3.287097 -0.533688
-0.547244 3.263829 -0.536442
-0.567025 3.322703 -0.553515
-0.568992 3.323072 -0.561697
-0.569910 3.336900 -0.555734
