ply
format ascii 1.0
comment VCGLIB generated
element vertex 1694
property float x
property float y
property float z
element face 0
property list uchar int vertex_indices
end_header
0.166121 0.725452 0.157151
0.153597 0.751660 0.205345
-1.180840 4.960032 0.227527
0.156060 0.752795 0.196083
-1.166969 4.995537 0.213886
-0.386812 3.563040 1.212150
0.153254 0.653327 0.232555
0.147965 0.667318 0.234049
0.119308 0.678045 0.251842
0.116452 0.693523 0.252620
0.104845 0.690598 0.264623
0.135328 0.730332 0.233273
0.125094 0.711717 0.243899
0.122615 0.727234 0.245023
0.132507 0.745810 0.234131
0.113847 0.709002 0.253965
0.111487 0.724480 0.255862
0.102426 0.706076 0.266386
0.084650 0.570952 0.315972
0.080041 0.618245 0.316039
0.090097 0.523685 0.311606
0.078021 0.536422 0.333218
0.068465 0.533743 0.346631
0.066119 0.549222 0.348562
0.071495 0.615158 0.337069
0.067758 0.614061 0.342958
0.055407 0.611135 0.353284
0.046079 0.577251 0.355992
0.029002 0.575042 0.356008
0.025437 0.605747 0.355972
0.112996 0.563627 0.266265
0.108252 0.594684 0.268696
0.089506 0.588952 0.301229
0.091624 0.605930 0.293663
0.389107 2.529853 -0.292431
0.065831 0.679305 0.324020
0.060246 0.710236 0.326187
0.069191 0.630713 0.338089
0.063696 0.645493 0.342034
0.058146 0.663333 0.343188
0.045656 0.657569 0.352959
0.042457 0.673047 0.352965
0.036656 0.623685 0.356407
0.030835 0.638726 0.356203
0.012825 0.651713 0.355301
0.009750 0.667191 0.355588
0.369654 2.622721 -0.292969
0.383968 2.623240 -0.267421
0.376547 2.622724 -0.277445
0.049871 0.690943 0.345353
0.047715 0.706514 0.346509
0.022967 0.694557 0.358599
0.021657 0.702025 0.359192
-0.162434 2.902344 0.716245
-0.002446 0.713242 0.354744
0.091129 0.638312 0.288378
0.097959 0.688720 0.273599
0.074087 0.681822 0.309776
0.096469 0.704443 0.274257
0.079110 0.715594 0.298814
-0.153357 2.902902 0.729450
0.071533 0.697301 0.311236
0.069109 0.712779 0.312988
0.066834 0.728258 0.315078
-0.734096 4.855072 -1.580561
-0.630334 4.968568 -1.610029
-0.633888 4.872640 -1.583721
-0.408374 3.590643 1.221718
-0.881793 5.636289 2.120923
-0.873223 5.605998 2.117123
-0.896261 5.603871 2.092882
-0.836232 5.578948 2.135176
-0.151491 2.888995 0.710361
-0.146573 2.896970 0.726439
-0.354944 3.644038 1.316332
-0.139985 2.905438 0.739414
-0.677077 4.658459 1.616575
-0.658577 4.627311 1.564716
-0.622897 4.636629 1.523582
-0.591990 4.644864 1.485831
-0.607196 4.688814 1.551071
-0.561527 4.649326 1.496332
-0.839320 5.399122 1.964229
-0.840724 5.337343 1.930394
-0.825321 5.337891 1.958026
-0.873080 5.552458 1.979187
-0.866731 5.547294 2.077648
-0.374143 3.636527 1.310609
-0.826250 5.488288 2.062704
-0.776535 5.556596 2.143147
-0.788661 5.524662 2.114066
-0.806347 5.400666 2.018531
-0.773357 5.402212 2.072824
-0.817048 5.369027 1.988817
-0.805565 5.339339 1.983724
-0.776574 5.370771 2.040763
-0.844620 4.991752 1.828779
-0.835146 5.021036 1.824567
-0.809944 4.964390 1.845682
-0.815423 4.901601 1.815834
-0.171958 2.955487 0.628807
-0.676542 4.864776 2.029946
-0.709864 4.865033 2.113034
-0.719955 4.850836 2.083694
-0.727719 4.834066 2.058396
-0.663742 4.906590 2.093196
-0.729111 4.829844 2.053293
-0.743520 4.765285 1.990762
-0.694651 4.721927 1.922602
-0.682575 4.660014 1.920952
-0.689590 4.690969 1.919575
-0.157524 2.927500 0.608160
-0.141877 2.931216 0.594954
-0.175374 2.937009 0.653041
1.984030 5.131483 1.193332
1.959093 5.127817 1.135463
1.922937 5.115088 1.048106
1.910201 5.114803 1.019290
1.918024 5.176306 1.050275
-0.174413 2.921176 0.652618
1.930976 5.208410 1.078989
-0.488023 4.596161 2.329348
1.949215 5.303096 1.139814
1.981641 5.336397 1.125411
1.938246 5.328461 1.179758
1.936443 5.360938 1.193073
-0.401187 3.664372 1.321925
-0.412638 3.648610 1.292542
-0.506457 4.651291 2.471535
-0.564121 4.645815 2.497138
-0.507266 4.648410 2.468371
-0.477800 4.715725 2.493270
-0.498903 4.681549 2.502646
-0.499671 4.679373 2.499903
-0.471899 4.629684 2.384038
1.985435 5.551266 1.330508
-0.725473 5.466209 2.120203
-0.698571 5.538023 2.143006
-0.697885 5.507582 2.123368
-0.692077 5.476625 2.122024
2.011624 5.606680 1.318870
-0.745363 5.343876 2.060407
-0.752923 5.403801 2.098223
-0.793684 5.280308 1.943990
-0.755215 5.197354 1.857985
-0.748144 5.196178 1.889317
-0.720110 5.166378 1.914652
-0.776039 5.102133 1.798308
0.128750 -0.009993 0.068917
-0.736153 5.137170 1.849534
-0.743631 5.314810 2.025173
-0.725252 5.315939 2.051483
-0.752938 5.254124 1.960297
-0.162335 2.909887 0.617951
-0.695816 5.241300 2.003958
-0.665033 5.232240 2.024763
-0.720290 5.196662 1.945892
1.966073 5.293110 1.308311
1.947244 5.292131 1.278574
-0.637978 5.173710 2.012763
-0.663321 5.135118 1.955081
1.985424 5.294752 1.330564
-0.604882 5.116838 1.992742
1.971560 5.324168 1.334020
1.968740 5.324629 1.406908
-0.431614 3.615043 1.250291
-0.742175 5.067821 1.815232
-0.749237 4.975415 1.838771
1.924124 5.346541 1.393135
-0.764396 4.848030 1.793189
1.859471 5.327543 1.455421
1.976516 5.143147 1.196666
-0.728261 4.884931 1.811609
-0.708963 4.856699 1.805141
-0.675518 4.922453 1.822920
1.961989 5.142780 1.168645
-0.667485 4.895110 1.815902
-0.635730 4.900111 1.822288
-0.614705 4.903146 1.830129
-0.667241 5.097625 1.922358
-0.631074 5.084225 1.940773
1.923877 5.200296 1.168932
1.918043 5.232520 1.153668
-0.651232 4.882423 2.018308
-0.577047 4.893345 1.951295
1.939792 5.143467 1.109558
1.931136 5.173740 1.113396
-0.751315 4.794527 1.683979
-0.763196 4.818854 1.758191
-0.752214 4.806408 1.753318
-0.778358 4.756867 1.695994
-0.698711 4.830055 1.797758
-0.157227 2.863319 0.609532
-0.668832 4.832338 1.795168
-0.660535 4.739465 1.770581
-0.761765 4.693533 1.723110
-0.742476 4.676133 1.714549
-0.718153 4.671680 1.688244
-0.730798 4.667876 1.709366
-0.732520 4.689322 1.746225
1.934204 5.297351 1.180951
-0.158454 2.911085 0.611063
-0.152072 2.912812 0.602924
-0.701422 4.712990 1.666164
-0.663511 4.683386 1.658741
-0.663890 4.644377 1.748606
-0.701365 4.660769 1.868654
-0.652000 4.677550 1.760954
-0.616645 4.652448 1.749872
-0.615813 4.621489 1.737321
-0.599309 4.762856 1.603332
-0.563340 4.847006 1.841806
-0.149791 2.897333 0.600849
-0.557927 4.758433 1.769849
-0.554049 4.781639 1.803223
-0.554524 4.784701 1.837904
-0.639062 4.720197 1.651946
-0.458349 3.649244 1.243895
-0.595093 4.731898 1.598404
-0.482194 4.706039 1.772310
-0.504317 4.685369 1.781161
-0.510528 4.668188 1.783922
-0.514022 4.645958 1.819949
-0.655444 4.838299 1.986113
-0.657941 4.820661 1.972271
-0.629961 4.826514 1.959003
-0.664851 4.727780 1.913433
-0.580664 4.807259 1.903038
0.403037 2.629641 -0.291149
1.903910 5.432929 1.435670
1.895656 5.404360 1.437482
1.891288 5.461390 1.454216
1.910388 5.466580 1.429550
-0.527571 4.872225 1.894861
0.042284 0.214870 0.055127
-0.522034 4.717562 1.892433
-0.514679 4.702113 1.923642
-0.506918 4.689297 1.935148
1.915711 5.477991 1.292538
1.912818 5.373626 1.392769
-0.471700 4.669796 1.832719
1.911717 5.408117 1.397197
-0.421599 4.693832 1.813375
-0.410112 4.701347 1.842745
1.913374 5.436282 1.413250
1.915828 5.440673 1.361435
1.949644 5.582977 1.484276
1.977969 5.605931 1.437225
0.059657 0.233130 0.065254
1.951322 5.520916 1.380131
-0.407895 4.615129 2.289898
-0.411868 4.643732 2.326127
-0.136812 2.884578 0.584280
-0.430101 4.665967 2.413311
-0.407655 4.641964 2.358728
-0.246618 3.529237 1.132677
0.223483 4.880753 0.665157
0.145462 -0.022534 0.061527
0.238981 4.861180 0.692750
0.223206 4.880619 0.666281
1.787017 5.376061 1.495666
1.811766 5.385070 1.476591
1.786732 5.440749 1.487694
1.844611 5.356810 1.458384
1.838824 5.387766 1.459774
-0.249232 3.544728 1.133834
1.817203 5.447054 1.474164
1.800874 5.443827 1.479438
-2.009685 4.465494 -0.210356
-1.970383 4.509736 -0.257493
-1.978273 4.474198 -0.253099
-1.965938 4.477195 -0.264400
-1.950203 4.415285 -0.257810
-1.922789 4.520224 -0.310172
-1.931906 4.452093 -0.278460
1.770573 5.468931 1.501905
-1.920902 4.355172 -0.244078
1.759949 5.530845 1.506826
-1.841723 4.117425 -0.310302
-1.840720 4.148384 -0.293619
1.921329 5.385819 1.252731
-1.852279 4.444533 -0.418688
1.914645 5.418921 1.224081
-1.828787 4.450384 -0.442065
-1.824337 4.351151 -0.392275
-1.787331 4.334149 -0.479014
-1.858902 4.278053 -0.353157
-1.836283 4.283904 -0.378500
-1.830239 4.227213 -0.388345
-1.792858 4.234273 -0.469766
-1.848588 4.150965 -0.345085
-1.832607 4.156910 -0.386653
-1.827193 4.092313 -0.368287
-1.820073 4.095376 -0.392205
-1.786223 4.140166 -0.481993
-1.802670 4.069551 -0.434398
-1.792707 4.073051 -0.457615
-1.784885 4.078677 -0.513426
-1.793446 4.210273 -0.576405
-1.758825 4.244221 -0.522841
-1.794176 4.298396 -0.472685
-1.787232 4.179494 -0.579157
-1.763763 4.120222 -0.589566
-2.020914 3.655213 -0.613184
-2.031843 3.596996 -0.642791
-2.020759 3.598638 -0.639197
-1.975527 3.574085 -0.635154
-1.929543 3.550571 -0.619893
-1.907774 3.582683 -0.594461
-0.310425 3.451314 1.168779
1.992821 5.673131 1.430617
2.022537 5.740768 1.451882
1.996582 5.668631 1.497890
-2.102973 3.857659 -0.438908
-2.067933 3.896525 -0.448624
-1.886354 3.807531 -0.397191
-2.030696 3.709752 -0.437786
-2.019440 3.679833 -0.440378
-2.018932 3.683966 -0.441716
-1.974198 3.752341 -0.461452
-1.970214 3.722496 -0.467655
-1.996304 3.652992 -0.456343
-1.965725 3.691539 -0.471970
-2.018621 3.598764 -0.476308
-1.904848 3.762940 -0.457155
-0.343537 3.462409 1.158485
-0.345862 3.447215 1.142286
-1.846166 3.742553 -0.449492
-1.817329 3.745365 -0.421100
-1.891364 3.641336 -0.485910
-1.889176 3.611176 -0.499573
-0.363324 3.461572 1.132800
-1.930362 3.596773 -0.515493
1.971399 5.237695 -0.049760
1.893808 5.223024 -0.070622
-1.856231 3.588068 -0.548405
-1.864203 3.556994 -0.579330
-1.799979 3.653373 -0.436769
-1.799732 3.622100 -0.446527
-1.803129 3.590904 -0.468493
-1.787846 3.798610 -0.337513
1.889356 5.254832 -0.040079
1.866978 5.252841 -0.064614
-1.766452 3.955069 -0.532466
-1.843288 4.045333 -0.347417
-1.821424 3.999439 -0.398571
-1.843467 3.993588 -0.371931
-1.813500 3.968707 -0.395079
-1.804097 3.938171 -0.396777
-1.777532 4.013264 -0.480019
-1.772640 3.949225 -0.470118
-1.770168 3.950660 -0.483276
-1.817746 3.897599 -0.358729
-1.791736 3.876503 -0.400977
-0.353771 3.478108 1.161718
-1.799561 3.840469 -0.366791
-1.789294 3.810529 -0.371344
-1.771009 3.850508 -0.433434
-1.757504 3.822385 -0.454402
-1.753534 3.857909 -0.490643
-1.738852 3.831426 -0.530367
-1.773841 4.019306 -0.550600
-1.761231 4.022830 -0.568145
-1.738537 4.059639 -0.578893
-1.735166 4.028682 -0.585726
-1.771510 3.987724 -0.551629
-1.757780 3.991872 -0.574796
-1.711894 4.065492 -0.595171
-1.712755 4.034533 -0.611536
1.807968 5.336824 -0.038431
-1.757071 3.926584 -0.558027
-1.787472 3.808267 -0.337681
0.407262 4.262445 1.617808
-1.745049 3.759846 -0.424204
-1.731825 3.764144 -0.465139
-1.802286 3.564526 -0.537881
-1.761102 3.627958 -0.435806
-1.787002 3.562410 -0.475725
-0.345199 3.459375 1.056362
1.867419 5.223508 -0.099275
1.848597 5.222253 -0.125388
1.845742 5.252161 -0.091774
-1.648835 3.583613 -0.440659
-1.672773 3.821047 -0.664376
-0.364639 3.480089 1.064438
1.811157 5.228910 -0.177709
-1.665988 3.755790 -0.634292
-1.660166 3.730379 -0.635252
1.787141 5.245208 -0.145190
-0.360952 3.446733 1.114514
-1.681940 3.709763 -0.487930
-0.360868 3.448206 1.095463
-0.369569 3.462469 1.118337
-1.668007 3.688361 -0.595718
-1.690931 3.649722 -0.583667
-0.368020 3.462622 1.100414
-1.627728 3.710824 -0.649883
-1.614628 3.694476 -0.627998
-0.144741 2.860816 0.673338
-1.654364 3.645825 -0.500161
-1.663974 3.633831 -0.530362
-1.666828 3.620405 -0.543046
1.767624 5.272268 -0.123918
-1.618148 3.612225 -0.516233
1.754237 5.293081 -0.117979
-1.627557 3.589463 -0.469020
-1.601545 3.611744 -0.558075
-0.114792 2.937069 0.579671
1.769775 5.351117 -0.055947
1.741554 5.360426 -0.077890
-0.129464 2.902521 0.578990
-1.455316 4.362111 -0.037145
-1.394718 4.446158 -0.098537
-1.400280 4.435385 -0.116084
-1.416860 4.433061 -0.123174
-1.344358 4.538974 -0.086444
1.634827 5.214976 -0.513067
1.625174 5.240603 -0.508786
-1.341722 4.472753 -0.053130
-1.333105 4.428792 -0.125889
-1.332481 4.407897 -0.022750
-1.365537 4.550821 0.129782
-1.362143 4.553809 0.098413
-1.355265 4.558613 0.051199
-1.361407 4.519611 0.127954
-1.347841 4.492993 0.087466
-1.355812 4.582258 0.159929
-1.338139 4.614964 0.186546
-1.367474 4.578513 0.182505
-1.375683 4.547550 0.149590
-0.392457 3.493997 1.076787
-1.355799 4.485641 0.165523
-1.325609 4.433465 0.077607
-0.126462 2.887705 0.569893
-0.313384 3.478474 1.016752
-1.335595 4.468742 0.013092
-1.330527 4.437726 0.010848
-0.296219 3.514820 0.999583
-1.323342 4.316236 -0.061260
-1.316980 4.314913 -0.029613
-1.306473 4.256407 -0.067551
-1.322459 4.271669 -0.096114
-1.266520 4.205013 -0.080198
-1.287976 4.144685 -0.044070
-1.249563 4.170027 -0.059316
-1.203260 4.148696 -0.114542
-1.334325 4.275513 0.115979
-1.360281 4.256139 0.127507
-1.325608 4.308661 0.032544
-1.319217 4.327065 0.016008
-1.341559 4.272485 0.050249
-1.326453 4.251577 0.043547
-1.324150 4.293398 0.025811
-1.312947 4.296109 0.015705
-0.117192 2.893986 0.557353
-1.306422 4.283615 0.103588
-1.312421 4.241537 0.070470
-0.341819 3.472620 1.028994
-1.358574 4.170209 0.091312
-1.333798 4.124563 0.046833
-1.356714 4.109030 0.057010
-1.282441 4.230206 0.053700
-1.301750 4.173289 -0.016304
-1.291467 4.133971 0.028037
-1.285211 4.138240 0.004613
-1.277322 4.136903 0.021756
-1.284544 4.153885 0.052907
-1.289670 4.138403 0.034151
-1.273267 4.150425 0.037188
-1.318266 4.328040 0.005426
-1.297039 4.268213 -0.002804
-0.334487 3.506115 0.982105
-0.334161 3.509423 0.984382
-1.284893 4.224309 -0.030122
-1.276680 4.223100 0.004218
-1.278536 4.208003 -0.012190
-1.271730 4.208092 0.002024
-1.267407 4.205027 0.051811
-1.281713 4.175579 -0.008704
-1.275369 4.159730 -0.002715
-1.271804 4.127917 0.002072
-1.263033 4.133766 -0.019059
-1.240909 4.132532 0.022853
-1.306133 4.067554 -0.033374
-1.291888 4.111689 -0.040714
-0.332302 3.567424 1.015593
-1.315888 4.021285 0.038902
-0.348544 3.534535 1.042699
-1.274853 4.016382 -0.013787
-1.262692 4.002021 -0.008143
-1.292173 4.023552 0.062843
-1.294940 4.047713 0.098537
-1.246627 3.996187 0.104326
-1.270792 3.965217 0.035475
-1.234447 3.936664 0.071701
-1.251364 4.098762 0.010238
-1.229519 4.070111 0.015000
-1.215418 4.105367 0.029637
-1.201871 4.113449 0.022732
1.768408 5.426401 1.633717
-1.251939 4.035769 -0.005874
1.744682 5.494038 1.534301
-1.219804 4.055876 0.013470
-1.210427 4.039439 0.009703
-1.201078 4.027686 0.005161
-1.192659 4.013734 -0.002983
-1.192598 4.115557 -0.047438
-1.192793 4.110880 -0.015769
-0.093081 2.911961 0.537859
-1.169198 4.086403 -0.061577
1.715661 5.549023 1.588169
-1.184307 4.078103 0.012716
-1.180969 4.079943 -0.003777
-1.185753 4.050537 -0.049290
-1.157991 4.055908 -0.065854
-1.178078 4.064509 -0.005058
-1.249302 3.988285 -0.007891
-1.242268 3.989471 -0.007498
-1.236789 3.943035 -0.016796
-1.221420 3.944582 -0.020116
-1.206986 3.964368 -0.018745
-1.193229 3.998254 -0.011478
-1.234782 3.878197 -0.002982
-1.126043 3.979649 -0.028241
-1.168467 3.939631 -0.027442
-1.131685 3.929858 -0.026131
-1.129226 3.914324 -0.027077
-1.210826 3.853090 -0.039737
-1.211031 3.849030 -0.042091
-1.166058 3.861871 -0.053337
-1.146608 3.889355 -0.036231
-1.151013 3.849319 -0.064806
-1.134352 3.868039 -0.059048
-1.117510 3.883404 -0.048330
-1.140579 3.802885 -0.062945
-1.143495 3.818363 -0.062299
-1.125006 3.805812 -0.066013
-1.108696 3.808740 -0.067421
-1.122856 3.790334 -0.068382
-1.104277 3.778313 -0.072316
-1.110131 3.770000 0.016539
-1.125237 3.818107 0.057707
-1.135146 3.738039 -0.041290
-1.139976 3.755453 -0.004678
-1.122951 3.737923 -0.012234
-1.127726 4.062244 -0.071170
-1.127714 4.026366 -0.045352
-1.128590 4.094738 -0.078743
-1.111069 4.015597 -0.052463
0.056784 0.248524 0.067085
-1.092728 4.003326 -0.060175
-1.076363 3.991557 -0.067439
-1.115590 3.994121 -0.032989
-1.108186 3.966456 -0.032292
-0.283498 3.620712 1.150332
-1.077115 3.973073 -0.048550
-1.081095 3.907470 -0.038268
-1.074998 3.956832 -0.041041
-1.063656 3.910540 -0.038978
-1.024489 3.953317 -0.090464
-1.007932 3.924679 -0.097809
-1.043034 3.968279 -0.082233
-1.074810 3.676961 -0.154243
-1.071796 3.662723 -0.170866
-1.051240 3.665401 -0.159424
-1.090573 3.890229 -0.043875
-1.080074 3.876289 -0.047489
1.710045 5.581058 1.575850
1.706981 5.615319 1.588480
-1.061166 3.895020 -0.040040
1.708040 5.579510 1.591547
-1.091356 3.827319 -0.061531
-1.090782 3.811669 -0.065217
-1.077076 3.798150 -0.067085
-1.073412 3.830076 -0.057025
-1.054677 3.833005 -0.052972
-1.052997 3.817526 -0.056400
-1.052456 3.801855 -0.059880
0.459843 4.276772 1.628931
0.227595 4.417657 1.697548
0.221388 4.415655 1.709677
-1.033056 3.804976 -0.056842
-1.013952 3.888223 -0.054041
-1.007759 3.857267 -0.054515
-1.003051 3.890985 -0.065499
-0.983801 3.858045 -0.074906
-1.000166 3.810832 -0.059052
-0.984993 3.813759 -0.063020
-0.981722 3.798281 -0.062866
1.679100 5.729998 1.654563
-1.102301 3.728638 -0.090342
-1.102248 3.731345 -0.088960
-1.072122 3.737200 -0.097394
-1.054623 3.739755 -0.091253
-1.052690 3.732912 -0.095134
-1.040696 3.741548 -0.083225
-1.047109 3.725509 -0.097610
-1.030638 3.726705 -0.087319
-1.029740 3.743060 -0.078225
-0.083122 2.931242 0.727288
-1.072834 3.706241 -0.113423
-1.038151 3.696629 -0.118828
-0.100972 2.971045 0.775944
-0.344764 3.610680 1.090390
-1.009229 3.745989 -0.070170
-1.009936 3.727057 -0.078571
-0.986486 3.733441 -0.064303
-0.970426 3.784192 -0.062727
-0.980565 3.750030 -0.058218
-1.028816 3.667805 -0.140192
-1.016512 3.693159 -0.111189
-0.318270 3.633267 1.077873
-0.986834 3.717607 -0.072139
1.912920 5.278389 -0.636550
-0.957381 3.705644 -0.054313
-0.975132 3.688346 -0.077854
-0.982306 3.672149 -0.091901
-0.946846 3.691559 -0.055943
-0.940357 3.723477 -0.039388
-0.975383 3.867285 -0.112249
-0.965730 3.838009 -0.126853
-0.983438 3.836194 -0.143137
-0.958841 3.836004 -0.085116
-0.271688 3.701046 1.135353
-0.982234 3.774954 -0.178130
-0.930687 3.776106 -0.076775
-0.869459 3.694685 -0.055831
-1.935230 3.498622 -0.651196
-1.936144 3.486521 -0.658894
-1.905145 3.494112 -0.664553
-1.902685 3.492823 -0.665645
1.619259 5.220035 -0.540627
-1.865091 3.467276 -0.665858
-1.827803 3.473133 -0.658162
1.601278 5.215953 -0.601584
-1.791825 3.495072 -0.645924
-1.734824 3.504371 -0.671234
-0.120523 2.937651 0.766698
-1.785532 3.533289 -0.510842
-1.749651 3.476585 -0.526762
-1.774155 3.533004 -0.481423
-1.749930 3.535807 -0.463332
-1.761306 3.518805 -0.487125
1.555941 5.307022 -0.637072
1.551469 5.309758 -0.682900
-1.714766 3.493070 -0.473312
-1.676917 3.546801 -0.442045
-1.669020 3.456108 -0.457878
1.551173 5.337979 -0.633387
-0.332483 3.691783 1.119061
-1.636528 3.490742 -0.456214
-1.627864 3.459786 -0.451125
-1.761311 3.377981 -0.521565
-1.727786 3.379638 -0.467509
1.542904 5.353804 -0.644636
1.533553 5.340754 -0.709423
-1.645746 3.564337 -0.600702
-1.596116 3.564359 -0.488919
-1.604492 3.545956 -0.476851
1.517001 5.401458 -0.702086
1.506372 5.431323 -0.697373
-1.565446 3.539255 -0.510551
-1.554363 3.511495 -0.541734
1.569316 5.231802 -0.483984
1.565327 5.272643 -0.585634
-1.522709 3.464941 -0.524107
1.555872 5.305390 -0.615913
-1.510023 3.419413 -0.495260
-1.501433 3.405809 -0.507573
-1.650846 3.324259 -0.408015
-1.619725 3.330113 -0.414208
-0.348563 3.689330 1.114780
-1.577570 3.403732 -0.442985
-1.560317 3.341822 -0.432975
-1.532566 3.347675 -0.446761
-1.521893 3.415439 -0.470156
-0.378548 3.590599 1.080258
-1.511326 3.383082 -0.460328
-1.488945 3.356456 -0.462941
-1.569602 3.278931 -0.486015
-1.545550 3.303254 -0.496699
-1.575488 3.245549 -0.466160
-1.583062 3.214557 -0.497262
1.553175 5.334257 -0.580250
-1.543070 3.324324 -0.549510
-1.522882 3.327783 -0.592233
-1.545478 3.313633 -0.531204
-1.531717 3.318789 -0.537314
-0.358555 3.612925 1.096182
-1.505666 3.337611 -0.548884
-1.512308 3.310007 -0.537199
-1.501367 3.279053 -0.526983
-1.490509 3.264450 -0.521128
-1.478159 3.250152 -0.527052
1.481076 5.320062 -0.720591
1.489126 5.301152 -0.711274
-1.544531 3.296842 -0.462679
1.506047 5.394036 -0.629887
-1.491015 3.339227 -0.451977
-1.480982 3.340980 -0.452219
-1.470850 3.294546 -0.451035
-1.492265 3.277480 -0.485881
-1.472583 3.280233 -0.462748
-1.460820 3.265314 -0.465369
-1.448714 3.266845 -0.453744
-1.457361 3.243090 -0.484136
-0.381892 3.683474 1.116000
-0.388823 3.650702 1.109613
-0.328417 3.602303 1.040594
-1.482280 3.525856 -0.566524
-1.492962 3.393436 -0.536232
-1.495003 3.391776 -0.519159
-1.485758 3.378976 -0.540496
-1.431978 3.437867 -0.560051
-1.425482 3.407388 -0.566076
-1.418309 3.377537 -0.570570
-0.092661 2.974756 0.765585
-1.393074 3.382783 -0.590302
-1.368289 3.443458 -0.489252
-1.496551 3.303296 -0.623353
-1.456942 3.335391 -0.587752
-1.471365 3.307073 -0.615814
-1.473661 3.334265 -0.557373
-1.442739 3.335148 -0.559587
-1.447186 3.336221 -0.523143
-1.434293 3.309524 -0.564116
-1.463602 3.287831 -0.556354
-1.446577 3.275650 -0.557592
-1.429315 3.278208 -0.562630
-1.404728 3.300889 -0.541986
-1.408272 3.297496 -0.557648
-1.412318 3.265656 -0.569704
-1.395788 3.268584 -0.570617
-1.363884 3.320050 -0.559298
-1.373402 3.283769 -0.554687
-1.370311 3.258957 -0.596733
-1.387433 3.269744 -0.566895
-1.375007 3.272315 -0.572412
-1.446399 3.225921 -0.546459
-1.435663 3.194551 -0.531282
-1.414524 3.231776 -0.550953
-1.429101 3.180350 -0.529622
-1.406228 3.200820 -0.546692
-1.403546 3.185342 -0.547864
-1.419149 3.165671 -0.535557
-1.401531 3.169864 -0.550538
-1.399581 3.137655 -0.544239
-1.397016 3.219225 -0.556875
-1.390590 3.237628 -0.573333
-1.328189 3.169019 -0.583280
-1.324204 3.187421 -0.605235
-1.285949 3.194694 -0.594702
-1.287171 3.160912 -0.594153
-1.447161 3.329583 -0.455212
-1.429599 3.325968 -0.462007
-1.427339 3.321319 -0.498279
-1.397480 3.309307 -0.477048
-1.429760 3.300405 -0.434777
-1.452830 3.236223 -0.486146
-1.403221 3.305921 -0.490950
-1.428098 3.253412 -0.445424
-1.409042 3.240004 -0.436647
-1.366977 3.272894 -0.424716
-1.374091 3.244708 -0.419163
-1.360402 3.352560 -0.528870
-1.373940 3.317584 -0.538320
-1.348492 3.351844 -0.504314
-1.380554 3.284070 -0.529091
-1.386672 3.295264 -0.496650
-1.370666 3.287121 -0.505401
-1.361665 3.286485 -0.492161
-1.376694 3.301390 -0.537198
-1.338362 3.289930 -0.510350
-1.332050 3.270243 -0.505307
-1.349302 3.287760 -0.463180
-1.344211 3.284087 -0.447237
0.511657 5.088174 -1.393198
-1.318699 3.320323 -0.444127
-1.296050 3.258990 -0.429474
-1.452259 3.221629 -0.503632
-1.443731 3.222073 -0.490183
-1.443531 3.206814 -0.508979
-1.435995 3.209806 -0.493615
-1.412070 3.194165 -0.483103
-1.406509 3.196716 -0.472234
-1.397335 3.180937 -0.476303
-1.397814 3.211986 -0.445171
0.502376 5.088893 -1.423548
-1.388119 3.226981 -0.428698
0.495795 5.119596 -1.420633
-1.359544 3.216321 -0.434334
-1.395996 3.195926 -0.459665
-1.359869 3.201845 -0.441812
0.474864 5.121963 -1.498808
0.473450 5.122890 -1.514125
-1.417576 3.164676 -0.519020
-1.394241 3.150833 -0.494907
0.486809 5.149800 -1.416649
-1.389338 3.122423 -0.531549
-1.388058 3.123431 -0.541831
-1.379128 3.121896 -0.501611
-1.380614 3.166788 -0.463135
-1.379091 3.152437 -0.468616
-1.365902 3.152737 -0.455783
-1.352900 3.154406 -0.448221
-1.371870 3.136790 -0.470366
-1.346581 3.202938 -0.447008
-1.331462 3.207596 -0.454163
0.460642 5.181729 -1.473979
-1.312277 3.226622 -0.479939
0.442979 5.180715 -1.500607
-1.299073 3.189331 -0.468739
-1.364746 3.160242 -0.551188
-1.358144 3.129286 -0.550741
-1.334171 3.150617 -0.565823
-1.345312 3.155677 -0.447690
0.479299 5.210010 -1.447797
0.478928 5.214937 -1.447634
-1.331360 3.127845 -0.454394
0.478020 5.214840 -1.448426
-1.323217 3.142959 -0.457705
-1.316929 3.129304 -0.457915
-1.289843 3.247969 -0.420630
-1.280624 3.228038 -0.409156
-1.327380 3.323666 -0.507391
-1.287372 3.262537 -0.456200
-1.273533 3.204690 -0.496238
-1.252160 3.205694 -0.471823
-1.267383 3.177808 -0.560757
-1.268739 3.146848 -0.578238
-1.248780 3.201561 -0.507794
-1.271284 3.209655 -0.566746
-1.239856 3.183661 -0.575045
-1.247767 3.165257 -0.561932
-1.238120 3.184453 -0.581465
-1.235867 3.170206 -0.599698
-1.237871 3.185824 -0.598811
-1.260048 3.201423 -0.433849
-1.250745 3.191333 -0.437977
-0.539952 4.932846 -1.739160
-0.543316 4.963058 -1.722580
-0.551346 5.025320 -1.716348
-1.369362 3.106601 -0.505944
-1.356378 3.108028 -0.477730
-1.366290 3.103114 -0.541778
-1.355650 3.113807 -0.552339
-1.354652 3.093576 -0.495237
-1.348765 3.081401 -0.532319
-1.348847 3.081659 -0.515047
-1.327220 3.119661 -0.564590
-1.334714 3.068276 -0.538555
-1.328719 3.070301 -0.551463
-1.337186 3.077323 -0.485753
-1.332979 3.079938 -0.477558
-1.330474 3.065195 -0.488731
-1.296399 3.101274 -0.464242
-0.396521 3.518214 1.147528
-1.296423 3.026593 -0.538413
-1.298605 3.025012 -0.520108
-1.315691 3.043106 -0.495290
-1.306713 3.051911 -0.470967
-0.604021 5.071497 -1.656808
-1.287301 3.054840 -0.465389
-1.294128 3.038011 -0.470392
-1.268238 3.041874 -0.462377
-1.298200 3.022548 -0.503977
-1.287882 3.023271 -0.473162
-0.599114 5.138499 -1.693541
-0.614375 5.106885 -1.667660
-0.649988 5.066224 -1.635793
-0.660301 5.064223 -1.632950
-0.387595 3.548166 1.195265
-1.273840 2.994113 -0.479391
-0.636725 5.168793 -1.689149
-1.298633 3.125515 -0.576492
-1.272442 3.099732 -0.565475
-0.404599 3.535233 1.151111
-1.297933 3.043822 -0.554880
-1.281601 3.063109 -0.560519
-1.267232 3.017172 -0.556256
-1.251898 3.020032 -0.558052
-1.232342 3.121520 -0.584018
-1.241611 3.118822 -0.569705
-1.232113 3.137226 -0.579242
-1.227444 3.090790 -0.590365
-1.233502 3.085855 -0.566804
-1.194403 3.122771 -0.514686
-1.174283 3.146643 -0.523623
-0.125976 2.899562 0.734529
-1.223009 3.094027 -0.622627
-1.206957 3.076804 -0.629750
-1.190651 3.056442 -0.602515
-1.180349 3.034734 -0.589427
-1.261832 3.107131 -0.462674
-1.244904 3.110059 -0.462691
-1.258542 3.091653 -0.462477
-1.255699 3.076175 -0.463287
-1.238525 3.095086 -0.462110
-1.239223 3.079103 -0.464321
-0.405486 3.547104 1.168738
-1.222259 3.082031 -0.464256
-1.210828 3.100436 -0.469441
-1.242340 3.014263 -0.462048
-1.217043 3.051074 -0.466933
-1.203305 3.069480 -0.466922
-1.210618 3.020118 -0.466887
-1.205439 3.118838 -0.488235
-1.181365 3.106290 -0.479367
-1.154069 3.093839 -0.464496
-1.179171 3.025671 -0.468407
-0.464206 5.716782 -1.756365
-1.156781 3.029187 -0.463763
-1.124019 3.039048 -0.459481
-1.131493 3.079773 -0.439196
-1.114930 3.081201 -0.420449
-1.113652 3.065722 -0.424782
-1.114134 3.057573 -0.429664
-1.275308 2.997768 -0.530446
-1.273247 2.998770 -0.538873
-0.401777 3.519766 1.115390
-1.269310 2.992111 -0.533108
-0.109944 2.894696 0.727259
-1.244938 2.962072 -0.492217
-1.235717 2.952297 -0.475966
-1.218620 2.961117 -0.551902
-1.217243 2.924415 -0.487055
-1.226811 2.952771 -0.534734
-1.219423 2.940831 -0.521819
-1.211980 2.943660 -0.542047
-1.204154 2.930164 -0.533747
-1.210402 2.925001 -0.508620
-1.200733 2.923666 -0.529071
-1.202059 2.908978 -0.494009
0.173066 -0.024876 0.086748
-0.413847 3.547960 1.138670
-1.209976 2.995146 -0.559506
-1.202241 3.013403 -0.569663
-1.171715 2.985379 -0.553476
0.979278 2.891726 1.967350
1.013296 2.900084 1.935009
-1.156401 2.988306 -0.557128
-1.181338 2.951821 -0.555699
-1.184014 2.911711 -0.536492
-1.168761 2.904306 -0.543518
-1.161330 2.954643 -0.547365
0.946975 2.858669 1.912313
-1.144010 2.957352 -0.543645
-1.238314 2.998854 -0.461090
0.977023 2.907292 1.968348
-1.220458 2.938390 -0.468610
-0.456311 3.542083 1.119548
-1.209684 2.916865 -0.473389
-1.201040 2.925056 -0.459993
-1.166806 2.930181 -0.449627
-1.193868 2.910507 -0.463175
-1.191235 2.896676 -0.481576
-1.171042 2.995017 -0.468462
-0.484994 3.536229 1.131230
-1.166502 2.979540 -0.465449
-1.150703 2.982467 -0.468009
-1.145948 2.966990 -0.464511
0.950258 2.962466 1.962986
-1.125599 3.018184 -0.459036
-1.137414 2.984923 -0.470071
-1.151048 2.933108 -0.452279
0.936711 2.871322 1.969018
-1.135149 2.933613 -0.455742
0.934835 2.868314 1.963391
-1.111166 2.908008 -0.453165
0.922333 2.866255 1.973782
0.913511 2.872990 1.996554
0.911511 2.849700 1.945573
0.932100 2.838906 1.904027
0.935850 2.854495 1.919736
0.921277 2.849662 1.924168
-1.167156 2.886231 -0.509815
-1.131735 2.862518 -0.523231
0.875433 2.940010 1.929391
0.879125 2.865397 1.994587
0.889124 2.855341 1.972914
-1.156428 2.870157 -0.479790
-0.402712 3.562390 1.184739
-1.133432 2.851797 -0.489996
-1.142272 2.855959 -0.468837
-1.129655 2.842313 -0.474436
-1.123637 2.842238 -0.459872
-0.401322 3.577390 1.201354
0.869024 2.849871 1.964604
-1.125177 2.851825 -0.510897
-1.124410 2.844718 -0.494000
-1.121320 2.846086 -0.504884
-1.120358 2.874125 -0.450150
-1.102719 2.877053 -0.448565
-1.108410 2.839592 -0.518339
-1.107582 2.824008 -0.484232
-1.094031 2.816759 -0.458691
0.864216 2.841162 1.949462
0.834240 2.818413 1.911112
-0.083229 2.915763 0.719835
-0.085928 2.900677 0.716180
-0.419620 3.589636 1.209476
-1.097634 3.071570 -0.464993
-1.153201 3.006949 -0.584017
-0.430779 3.587471 1.201155
-1.139080 3.001608 -0.590930
0.843711 2.922329 1.941357
-1.123357 3.006214 -0.632383
-0.425527 3.591922 1.212098
-1.133052 2.995136 -0.593606
-1.119446 3.000004 -0.626470
-1.111584 2.984528 -0.615973
0.832320 2.899984 1.946419
-1.132818 2.994157 -0.580301
-0.103975 2.865382 0.692557
-1.100305 2.956097 -0.608137
0.836923 2.882069 1.772025
-1.095205 2.954313 -0.593166
-1.087625 2.933074 -0.546485
-1.109147 3.018409 -0.634203
-1.082604 3.005862 -0.619776
0.788123 2.852496 1.862639
-1.092032 2.971978 -0.617292
0.763113 2.849252 1.804802
-1.057841 2.977834 -0.616571
-1.061229 2.960579 -0.608252
-1.021268 2.932824 -0.574283
-1.015795 2.934335 -0.581651
-1.083343 2.994179 -0.468867
-1.098284 2.916775 -0.538581
0.925877 2.975306 1.993069
0.937315 2.963372 1.934261
0.907470 2.966496 1.947511
-1.079295 2.913863 -0.457669
-1.059423 2.917106 -0.455153
-0.992841 2.992276 -0.449033
-0.990503 2.996264 -0.495836
-0.998733 2.994145 -0.515358
-1.029153 2.929873 -0.553546
-0.977882 2.947495 -0.490136
-0.980801 2.934350 -0.502834
-0.994768 2.928280 -0.465400
-0.993179 2.946642 -0.603992
0.741605 2.825756 1.745415
-0.454387 3.570370 1.173210
-1.113735 2.882799 -0.550489
-0.448163 3.599763 1.222147
-1.061796 2.907295 -0.538862
-1.075095 2.898386 -0.455422
-1.056722 2.885424 -0.454026
-1.041102 2.904242 -0.455146
-1.033970 2.873286 -0.453508
-1.014033 2.860736 -0.453959
-1.101028 2.834843 -0.521616
-1.082906 2.813806 -0.512422
-1.074807 2.806885 -0.516016
-1.061661 2.792955 -0.513795
0.408390 3.295623 1.134907
0.398359 3.303572 1.139360
-1.038110 2.798807 -0.537037
-1.054914 2.820997 -0.446030
-1.042046 2.807064 -0.444385
-1.033414 2.808448 -0.442962
-1.016498 2.811376 -0.443006
-1.038224 2.879125 -0.539375
-1.035367 2.863647 -0.540154
-1.014095 2.900456 -0.554103
-1.009339 2.884979 -0.550603
-1.006013 2.877554 -0.546574
-0.984667 2.870798 -0.541152
-1.008720 2.894618 -0.465711
-1.005608 2.879139 -0.465915
-1.001021 2.865475 -0.461952
-0.986819 2.864988 -0.469697
-1.033915 2.848168 -0.544095
-1.017100 2.850805 -0.540574
-1.013646 2.839328 -0.543609
-0.995837 2.854633 -0.533010
-0.993666 2.838230 -0.532795
-0.975021 2.854105 -0.527206
0.824523 3.779932 1.742882
-0.990736 2.822824 -0.534361
-0.984583 2.807592 -0.530908
-0.974763 2.824944 -0.525968
0.789313 3.825036 1.686395
-0.975000 2.837535 -0.455873
-0.960703 2.840869 -0.461624
-0.955336 2.860994 -0.479664
-0.968210 2.825999 -0.524961
0.763552 3.779407 1.605916
-0.489733 3.571937 1.137196
0.738656 3.780643 1.539710
0.735494 3.773362 1.541115
-0.083399 2.884804 0.705026
0.753191 3.840505 1.533244
-1.034920 2.790501 -0.533723
-1.048832 2.778875 -0.510308
-1.023351 2.760568 -0.521617
-1.056237 2.774972 -0.471969
-1.039670 2.760780 -0.462666
-1.047844 2.774562 -0.451744
0.746786 3.769954 1.673986
0.773474 3.809353 1.662129
0.774724 3.805868 1.678809
-1.021998 2.747084 -0.453274
-1.008918 2.731006 -0.459078
-0.997398 2.721434 -0.481420
0.739040 3.783616 1.711893
-0.982889 2.703472 -0.453394
-1.001743 2.789185 -0.538627
-0.997602 2.773707 -0.536512
-0.989941 2.775027 -0.536454
-0.971446 2.745680 -0.530170
-0.954812 2.748608 -0.530849
-0.981789 2.729148 -0.521663
-0.967885 2.732928 -0.528092
-0.981268 2.707455 -0.489557
0.708403 3.795890 1.691022
0.746777 3.762311 1.605049
0.748582 3.760066 1.621484
-0.941933 2.699969 -0.524506
-0.997960 2.920348 -0.584943
-0.983798 2.924711 -0.593083
-0.970815 2.854266 -0.596668
-0.971990 2.847318 -0.602551
-0.934471 2.939855 -0.474938
-0.954386 2.843975 -0.560872
-0.060933 2.950071 0.707026
0.712085 3.742794 1.550340
0.741107 3.761588 1.588573
0.737755 3.759822 1.574585
0.728426 3.743425 1.592370
-0.923679 2.825084 -0.583119
-0.925224 2.846049 -0.497821
-0.950928 2.828928 -0.524183
-0.934637 2.815840 -0.525849
-0.486820 3.613626 1.163180
-0.908510 2.811300 -0.555380
-0.061349 2.937093 0.700041
-0.925465 2.785421 -0.526613
-0.935410 2.753496 -0.526472
0.684266 3.709076 1.632814
-0.897840 2.757395 -0.516962
0.685341 3.713658 1.597865
0.671434 3.709347 1.604041
-0.928741 2.706362 -0.528892
0.665477 3.706824 1.589451
-0.889928 2.741776 -0.512172
-0.887899 2.726440 -0.508996
-0.820515 2.789236 -0.525503
-0.825620 2.772029 -0.545016
-0.864813 2.747771 -0.526074
-0.846057 2.735255 -0.531480
0.632823 3.740871 1.610782
0.629751 3.756349 1.611078
-0.809740 2.725733 -0.530209
0.692693 3.779247 1.663530
-1.575912 3.161143 0.395817
-1.563791 3.147893 0.416941
-1.539960 3.153745 0.394330
-1.539803 3.102091 0.449624
-1.545871 3.087518 0.468670
-1.528173 3.085991 0.468313
-1.515523 3.107317 0.427730
-1.514474 3.089811 0.455397
-1.505188 3.091842 0.443796
-1.523430 3.079441 0.475944
-1.508791 3.079521 0.469444
0.609302 3.803669 1.666079
-1.495106 3.094537 0.428757
0.599615 3.782625 1.634458
0.578525 3.779818 1.623870
-1.478428 3.073396 0.455964
-1.475761 3.080557 0.436068
-1.460558 3.067629 0.450601
-1.458187 3.099645 0.395266
0.573400 3.793229 1.630315
-1.455875 3.075475 0.428715
-1.449514 3.067254 0.439211
-1.438618 3.073313 0.421478
-1.538189 3.069258 0.516969
-1.502023 3.072479 0.481405
-1.446476 3.051573 0.476579
-1.446575 3.032871 0.508817
-1.418200 3.078445 0.396434
-1.417907 3.058655 0.427377
-1.380264 3.051719 0.412385
0.716670 3.782995 1.515000
0.696940 3.779743 1.457260
0.379164 2.638205 -0.264339
-1.445991 2.900274 0.566862
-1.442342 2.902702 0.543389
-1.455494 2.998988 0.512447
-1.421553 2.973885 0.498181
-1.402447 2.973893 0.541213
-1.418478 2.811406 0.429399
-1.422227 2.789165 0.396597
-1.466785 2.838347 0.491178
-1.427296 2.875164 0.518257
-1.411335 2.875171 0.554206
-1.406511 2.868490 0.561958
-1.465619 2.819018 0.484799
-1.479149 2.812525 0.490807
-1.482351 2.804460 0.479838
-1.416765 2.850051 0.451264
-1.392301 2.855903 0.430078
-1.408684 2.876106 0.528450
-1.390329 2.870440 0.520302
-1.383696 2.869051 0.534593
-1.360310 2.866310 0.506975
-1.386831 2.824946 0.427974
-1.356779 3.047779 0.401958
-1.326127 3.029494 0.388353
-1.340762 3.039888 0.394849
-1.308253 3.021354 0.380419
-1.364320 3.043622 0.422543
0.691163 3.559566 1.388486
-1.357351 3.013988 0.538147
-1.362463 3.029111 0.538475
-1.380377 3.026183 0.536273
-1.357221 3.029897 0.540041
-1.363334 3.042503 0.542753
0.668826 3.589648 1.363926
0.685786 3.561092 1.356402
-1.355211 2.998329 0.538116
0.675762 3.529594 1.326388
-1.346799 3.002903 0.482533
0.586502 3.575854 1.349265
0.571156 3.565218 1.390060
-1.331192 2.999912 0.476784
-1.368265 2.923557 0.438288
-1.363266 2.921702 0.473805
-1.350502 2.979079 0.502598
-1.341300 2.939164 0.504723
-1.321808 2.982612 0.489857
-1.325688 2.957578 0.508818
-1.312448 2.965452 0.502940
-1.348284 3.041903 0.418353
-1.346124 3.042751 0.397229
-1.327353 3.036283 0.423367
-1.333523 3.025386 0.443370
0.549281 3.559223 1.417009
0.566802 3.567592 1.410523
0.535442 3.559845 1.425637
0.544142 3.525790 1.350356
0.531241 3.518261 1.356336
-1.289375 3.034107 0.428877
-1.296668 3.013082 0.442160
-1.312354 2.995678 0.469111
-1.277919 3.003154 0.440254
0.530833 3.545766 1.408699
0.511738 3.532922 1.399213
-1.323236 2.807006 0.387114
-1.331160 2.899388 0.427293
-1.314274 2.866346 0.455567
-1.345532 2.865585 0.500413
-1.324750 2.861083 0.507886
-1.350690 2.799844 0.418661
-1.323415 2.805697 0.403805
0.547830 3.363921 1.107455
-1.315356 2.849751 0.521490
0.541736 3.333235 1.075696
-1.290142 2.852151 0.500383
-1.333061 2.901165 0.391457
-1.273100 2.891980 0.399307
-1.260895 2.879325 0.420897
0.507232 3.340916 1.108135
0.504731 3.331635 1.092126
0.512520 3.358214 1.122050
-1.276332 2.886450 0.470291
0.491035 3.326104 1.098208
0.495544 3.337962 1.113888
-1.252300 2.906480 0.494327
0.512755 3.372230 1.129109
-1.255903 2.876407 0.470284
-1.312455 2.838662 0.416791
-1.281735 2.843206 0.436143
-1.278203 2.856531 0.489808
-1.270684 2.845615 0.501656
0.561025 3.408182 1.136058
0.527877 3.449728 1.201691
0.515871 3.441278 1.207806
0.501032 3.400263 1.155277
-1.436393 2.861029 0.609697
-1.408911 2.860777 0.631967
-1.411874 2.855631 0.598812
-1.405956 2.854481 0.596185
-1.390801 2.851575 0.589457
-1.406693 2.855384 0.613747
-1.392751 2.857338 0.623701
-1.384315 2.851040 0.603813
0.621467 3.510247 1.247086
-1.421237 2.866406 0.646334
-1.403308 2.880363 0.698417
-1.384010 2.875450 0.655379
-1.363826 2.880428 0.663651
-1.383064 2.854599 0.568786
-1.369344 2.849195 0.597166
-1.334371 2.852160 0.601931
-1.328841 2.884554 0.665353
0.634228 3.558677 1.292030
-1.323802 2.868742 0.628355
-1.319360 2.877486 0.643910
0.658700 3.588958 1.282245
-1.331169 2.845661 0.562982
-1.375957 2.892024 0.720742
-1.333302 2.888755 0.736274
-1.313280 2.882349 0.692916
0.603006 3.579556 1.310452
-1.334699 2.985605 0.541228
-1.321333 3.019491 0.547614
-1.329785 3.018222 0.545098
-1.318334 3.004013 0.547157
0.587898 3.535820 1.256050
-1.294620 2.936285 0.529501
0.549886 3.511600 1.278700
0.542401 3.508679 1.299239
-1.272961 2.930521 0.574377
-1.302555 2.985620 0.613627
-1.270641 2.928988 0.587798
0.566309 3.487051 1.219572
-1.267967 3.028276 0.553380
-1.260906 2.997320 0.554857
-1.238958 3.000990 0.556481
-1.278479 2.963066 0.539565
-1.239027 2.954335 0.537527
0.533920 3.465007 1.217794
-1.200598 2.941270 0.585554
0.545439 3.496421 1.262412
-1.293520 2.857836 0.615957
-1.239063 2.873777 0.625495
0.580794 3.541871 1.282374
-1.294333 2.839079 0.563864
-1.272097 2.836148 0.536757
-1.274636 2.836678 0.528096
-1.273587 2.840809 0.571888
-1.264269 2.837020 0.548955
-1.277591 2.853171 0.608134
-1.265342 2.849241 0.594387
0.547196 3.518925 1.314530
0.554882 3.522243 1.293882
-1.255555 2.918160 0.566954
-1.251555 2.922847 0.501714
-1.229779 2.910789 0.498987
-1.225414 2.907992 0.551586
-1.225862 2.925779 0.521440
-1.256538 2.915874 0.581539
-1.250026 2.911006 0.578649
-1.235273 2.902501 0.571313
-1.233878 2.902019 0.604280
-1.225491 2.919939 0.598561
-1.221374 2.906616 0.601626
-1.225610 2.887552 0.584734
-1.232271 2.882264 0.605242
-1.225965 2.882764 0.619677
-1.215117 2.872389 0.614863
-1.195895 2.925081 0.588603
-1.202802 2.895087 0.557740
-1.194894 2.883345 0.571411
-1.212159 2.835310 0.510145
-1.214149 2.836020 0.545499
-0.073372 0.724598 0.073894
-0.075437 0.723375 0.057576
0.508407 3.436677 1.228356
-1.198341 2.855510 0.590183
0.482593 3.416488 1.239821
-1.184313 2.859123 0.583954
-1.208654 2.841213 0.560294
-1.251990 2.862114 0.666946
-1.239988 2.859636 0.701015
0.471067 3.419527 1.254783
-1.219127 2.863641 0.720058
-1.224586 2.834207 0.673386
-1.213924 2.834799 0.663950
-1.199426 2.836712 0.697491
-1.185352 2.858920 0.739534
0.450938 3.430829 1.271109
0.436470 3.428539 1.260676
0.452156 3.373080 1.190552
-1.192146 2.845861 0.639141
0.450726 3.368158 1.185038
-1.162116 2.841661 0.625808
-1.147837 2.833027 0.653941
0.462138 3.318823 1.108746
-1.128206 2.867379 0.714160
-1.133525 2.848423 0.693348
-1.367332 2.759026 0.441172
-1.353970 2.732084 0.458711
-1.370360 2.726236 0.498084
-1.384242 2.764960 0.379737
-1.363485 2.758371 0.370522
0.490237 3.381859 1.161891
-1.358565 2.804976 0.333858
-1.353573 2.805684 0.335881
-1.332474 2.773031 0.391222
-1.336036 2.773614 0.375568
-1.343325 2.763491 0.378806
-1.340263 2.755388 0.394684
0.476593 3.363453 1.162095
0.398077 2.608807 -0.256446
0.411302 2.609328 -0.245506
0.458965 3.345045 1.153320
-1.332578 2.791681 0.356793
0.415783 2.643215 -0.247079
-0.051736 2.908584 0.667314
-1.344820 2.768823 0.432247
0.461552 3.353312 1.162999
-0.038241 2.927465 0.668589
-1.327836 2.740248 0.411091
-1.339527 2.702166 0.463309
0.496247 3.413201 1.197783
0.489150 3.409897 1.212013
0.492517 3.397339 1.174241
0.463301 3.403770 1.231625
-1.245732 2.993529 0.429250
0.429194 3.339716 1.159831
0.407797 3.333297 1.153289
0.411478 3.351658 1.168134
-1.204052 2.968430 0.432411
-1.200739 2.960347 0.436108
-1.143112 2.966030 0.410521
-1.257506 2.916126 0.366668
0.436447 3.399726 1.225842
-1.210323 2.891030 0.382226
-1.211026 2.932146 0.476360
0.422630 3.397369 1.215300
-1.188144 2.937478 0.453817
-1.182524 2.928947 0.462498
-1.236241 2.854129 0.383562
-1.246890 2.835935 0.353211
0.432264 3.414289 1.243963
-1.174304 2.940405 0.446846
-1.138944 2.928901 0.442111
0.414292 3.427206 1.235674
-1.127373 2.933707 0.430905
-1.194070 2.869420 0.329752
-1.157225 2.899757 0.347858
0.375223 3.392396 1.184027
-1.104638 2.969931 0.427909
0.533996 3.505745 1.320126
0.528319 3.490232 1.298151
-1.116556 2.936706 0.416172
-1.107540 2.929783 0.394734
-1.111343 2.921155 0.421654
-1.100835 2.923684 0.408452
-1.093599 2.908604 0.416264
0.494216 3.486364 1.338059
-1.067179 2.914779 0.395279
-1.079487 2.886164 0.344411
-1.088391 2.893813 0.421101
0.489792 3.474980 1.322791
0.492204 3.481455 1.331241
-1.052564 2.901905 0.387042
-1.052298 2.901488 0.387449
-1.046297 2.886428 0.393945
-1.040157 2.871241 0.399799
-1.019814 2.859994 0.391617
-1.023950 2.878594 0.361616
-1.017768 2.871269 0.372124
-1.188956 2.947592 0.533989
-1.169667 2.947125 0.578932
0.526321 3.507144 1.341037
-1.139993 3.000346 0.512542
-1.144579 3.025795 0.445631
-1.154982 3.017811 0.526427
-1.135557 3.020740 0.532033
-1.105018 2.952994 0.648253
-1.101013 2.996740 0.598648
-1.105795 2.953856 0.635251
-1.222707 2.928701 0.490402
-1.219163 2.923590 0.496001
-1.198871 2.930444 0.521462
-1.190491 2.916329 0.517525
-1.201196 2.898886 0.488371
-1.180761 2.900550 0.530510
-1.190393 2.917839 0.483229
-1.178071 2.922003 0.469292
-1.177294 2.933589 0.529117
-1.170063 2.919019 0.526352
-1.157232 2.915643 0.588773
-1.156727 2.884290 0.591275
-1.149290 2.937495 0.541327
0.445981 3.473940 1.325007
0.462681 3.436108 1.283129
-1.209614 2.851310 0.483828
-1.204997 2.834304 0.506965
-1.200382 2.835834 0.497408
-1.181694 2.828598 0.496620
-1.184309 2.832926 0.532251
-1.175269 2.828409 0.511003
-1.184672 2.872641 0.470932
-1.182502 2.857162 0.468607
-1.169786 2.875568 0.466315
0.452085 3.449621 1.305066
-1.158090 2.830798 0.471794
-1.175374 2.852313 0.561407
0.442337 3.458474 1.309392
0.430671 3.459076 1.297337
-1.164897 2.842368 0.540866
-1.153667 2.872655 0.540763
0.425492 3.457628 1.282401
0.419955 3.457802 1.267624
0.433450 3.472606 1.313364
-1.134746 2.915304 0.445231
-1.131994 2.924944 0.534926
-1.130555 2.893986 0.523743
-1.124464 2.895103 0.522903
-1.074927 2.941406 0.552606
-1.090870 2.916766 0.525219
0.415226 3.467138 1.269722
0.400595 3.467016 1.276218
-1.131288 2.839072 0.457003
-1.130545 2.831023 0.494429
-1.112315 2.840258 0.500285
-1.083596 2.843645 0.487533
-1.109619 2.850477 0.511116
-1.096247 2.884362 0.517516
-1.093941 2.868884 0.515498
-1.079705 2.887290 0.516632
-1.077812 2.871811 0.513681
-0.154368 2.846483 0.626497
-1.123257 2.922225 0.590168
-1.135319 2.888143 0.589302
-1.118986 2.890914 0.589982
0.441293 3.521066 1.327079
-1.107335 2.863812 0.601482
0.429268 3.534384 1.332676
0.433625 3.548965 1.349285
-1.097327 2.887676 0.596168
0.435061 3.505064 1.312614
0.432299 3.520525 1.313837
0.409404 3.500695 1.311748
-1.105542 2.993736 0.429031
-1.091894 3.004402 0.425234
-1.095223 3.019881 0.424950
-1.054204 2.976381 0.457555
-0.065182 0.719149 0.053024
-0.056762 0.710051 0.066708
-1.061431 3.010257 0.417559
-1.038869 3.010323 0.467642
-1.050385 2.967959 0.576175
-1.066007 2.935302 0.548648
-0.136446 2.853821 0.571125
-1.046656 2.904394 0.523937
-0.141874 2.836995 0.569246
-1.098323 2.874723 0.429341
-1.067817 2.847929 0.446056
-1.074384 2.843447 0.468681
-1.061297 2.847196 0.460397
-1.046980 2.859932 0.419566
-1.041284 2.851990 0.432012
-1.062496 2.890218 0.517248
-1.047900 2.862186 0.497554
-1.019088 2.882201 0.510591
-1.029939 2.865543 0.497795
0.600878 3.632319 1.496727
-1.011384 2.875899 0.507171
0.654537 3.696150 1.559839
0.644323 3.684747 1.530362
0.638793 3.684027 1.515125
0.636693 3.677638 1.550530
-0.991435 2.887110 0.515184
-0.999553 2.854607 0.486051
-1.003508 2.869393 0.503676
-0.994368 2.862230 0.499619
-0.985867 2.857010 0.495846
-0.976535 2.858420 0.498502
-1.052923 2.936705 0.559874
-1.039117 2.951619 0.605647
-1.041868 2.952233 0.591410
0.631343 3.671604 1.535671
-1.008267 2.914484 0.532168
-0.989834 2.936133 0.583769
0.637320 3.695606 1.481307
0.630834 3.686093 1.484188
0.625813 3.677410 1.486419
-0.980372 2.945455 0.609421
-0.968545 2.908548 0.539852
-0.954391 2.900633 0.568040
-0.940310 2.914730 0.527314
-0.945991 2.895234 0.505435
-0.924553 2.897547 0.554792
-0.934440 2.908114 0.537451
0.627156 3.687416 1.453521
0.621539 3.665100 1.505554
0.609381 3.652230 1.459248
0.611043 3.649211 1.475747
0.685431 3.624943 1.359212
0.662765 3.602419 1.297673
-1.137657 2.828138 0.477068
0.609727 3.598020 1.336850
-1.109635 2.835557 0.464625
-1.095559 2.838892 0.458375
0.621419 3.644663 1.383725
0.654694 3.701455 1.404649
0.647700 3.681003 1.379368
0.419230 2.582682 -0.283163
-0.038392 0.663118 0.090691
-0.036031 0.647894 0.085474
0.404533 2.535385 -0.294617
0.603003 3.622959 1.410067
0.606744 3.638447 1.425665
0.405744 2.517301 -0.300315
0.419208 2.536428 -0.300584
0.586868 3.590087 1.399345
-1.024130 2.849493 0.426659
-1.016325 2.852127 0.405958
-0.995298 2.845330 0.410643
0.605525 3.610813 1.373043
-0.981771 2.845591 0.442324
-0.972576 2.842529 0.421006
-0.970035 2.844676 0.471584
-0.952809 2.839122 0.463937
-0.908608 2.732862 0.616687
0.583102 3.580877 1.384754
-0.889452 2.709505 0.546228
0.622051 3.673523 1.419148
0.617748 3.671313 1.438295
0.696075 3.758704 1.525653
0.691637 3.735808 1.543359
0.685009 3.740668 1.532720
0.671214 3.738585 1.517955
0.665811 3.722381 1.520358
-1.019667 3.638954 -0.161483
0.659365 3.721806 1.504206
-1.034367 3.572783 -0.167983
-1.008396 3.547677 -0.200201
-1.031910 3.541825 -0.176875
0.696153 3.779058 1.455168
0.654575 3.717526 1.490876
0.419971 2.520228 -0.306416
-0.959770 3.593034 -0.188068
-0.943758 3.591008 -0.193498
-0.930901 3.562371 -0.217125
-0.915635 3.547406 -0.226141
0.667086 3.708315 1.554265
-0.889319 3.508242 -0.253802
-0.030485 0.616937 0.083541
-1.005140 3.655352 -0.133466
-0.995715 3.626558 -0.154880
-0.980758 3.618881 -0.144284
-0.977083 3.613061 -0.145915
-0.964657 3.612993 -0.116961
0.589831 3.657578 1.554159
-0.946719 3.644809 -0.073225
0.612730 3.683713 1.578404
0.614147 3.691504 1.585226
-0.956168 3.613430 -0.103495
0.591237 3.673094 1.564555
-0.987425 3.597045 -0.169473
-0.947488 3.583808 -0.124578
0.572206 3.671324 1.544692
-0.936631 3.599146 -0.092968
0.566221 3.640661 1.512884
0.432729 2.569593 -0.294185
-0.956344 3.585288 -0.155117
0.557663 3.670955 1.516678
-0.926030 3.600993 -0.082402
-0.910451 3.587441 -0.079605
-0.918597 3.555755 -0.102929
-0.853905 3.662692 -0.097202
-0.874792 3.628900 -0.088644
-0.839850 3.618971 -0.103433
-0.914635 3.666863 -0.053349
-0.896727 3.649085 -0.059479
-0.869270 3.673618 -0.065219
0.576323 3.614089 1.463972
-0.894907 3.605848 -0.075524
-0.937895 3.524977 -0.163296
-0.930046 3.528051 -0.185721
-0.936906 3.539894 -0.146503
-0.932572 3.510075 -0.165502
0.523708 3.574294 1.445614
-0.920865 3.509829 -0.136384
-0.917103 3.531361 -0.199723
0.543836 3.616890 1.471122
-0.911208 3.499886 -0.194098
-0.897936 3.503331 -0.209122
0.525717 3.605603 1.460541
0.532327 3.637608 1.476227
-0.890956 3.496026 -0.097954
0.518942 3.636000 1.466994
0.529421 3.685102 1.477508
0.507529 3.571418 1.447178
-0.892717 3.454870 -0.181481
-0.892062 3.455619 -0.200867
-0.882804 3.441809 -0.204442
-0.110137 2.805992 0.610862
0.504511 3.602462 1.453681
0.501593 3.617878 1.455393
-0.904976 3.479733 -0.126197
-0.887892 3.480628 -0.099311
-0.887282 3.433978 -0.116808
-0.880787 3.434002 -0.102456
0.474158 3.613500 1.450352
