ply
format ascii 1.0
comment VCGLIB generated
element vertex 1700
property float x
property float y
property float z
element face 0
property list uchar int vertex_indices
end_header
0.122406 1.359556 -0.303804
0.120538 1.324542 -0.322758
0.110164 1.358169 -0.314606
0.108975 1.373047 -0.317185
0.166986 1.345658 -0.371042
0.163154 1.329415 -0.371894
0.160710 1.313239 -0.371252
0.159026 1.297099 -0.369789
0.158759 1.281025 -0.366801
0.146696 1.267183 -0.352812
0.117107 1.287827 -0.340890
0.125984 1.253385 -0.344281
0.108497 1.254892 -0.343269
0.100843 1.353561 -0.348503
-0.059802 0.108470 0.120334
0.103637 1.339078 -0.329938
0.108496 1.321723 -0.332472
0.100467 1.337409 -0.346261
0.097393 1.367769 -0.369858
0.087706 1.350623 -0.382343
0.093596 1.319397 -0.364209
0.085368 1.334700 -0.379472
0.082477 1.318882 -0.376093
-0.654212 2.808428 0.464547
-0.655772 2.809823 0.475353
-0.660288 2.811828 0.470037
0.102183 1.287664 -0.348557
0.099541 1.255437 -0.344688
0.078797 1.286849 -0.371271
0.187659 1.232947 -0.336582
0.181592 1.220141 -0.328657
-0.682021 2.833903 0.511469
0.191509 1.211277 -0.316976
0.186725 1.203001 -0.312170
0.166546 1.202727 -0.319314
0.154207 1.189649 -0.307825
-0.693822 2.832687 0.500248
-0.671042 2.815307 0.457638
0.157786 1.216745 -0.331669
-0.682464 2.823184 0.467894
-0.678838 2.824166 0.442208
-0.682098 2.824818 0.445255
0.134365 1.219425 -0.333737
0.150265 1.204639 -0.322855
0.138794 1.190430 -0.311583
0.128982 1.206031 -0.325388
0.120335 1.190683 -0.317576
-0.692729 2.830152 0.478158
-0.705452 2.837121 0.488620
0.164002 1.159855 -0.287831
-0.704481 2.836535 0.465516
0.150530 1.174468 -0.299547
0.158893 1.142777 -0.283689
-0.079288 0.403827 -0.155294
0.157485 1.126680 -0.281675
0.103543 1.129971 -0.297906
0.129243 1.237024 -0.341354
0.121464 0.584421 -0.022472
0.111928 1.219314 -0.333260
0.103638 1.191824 -0.323467
0.087073 1.192585 -0.328171
0.082082 1.239750 -0.350021
0.078161 1.224136 -0.345685
0.068880 1.240804 -0.359181
0.057405 1.209055 -0.347994
0.099313 1.176274 -0.318770
-0.716005 2.843123 0.475924
0.096064 1.162623 -0.313686
0.081156 1.177079 -0.324179
0.075891 1.161705 -0.318617
0.101192 1.144911 -0.304499
0.088080 1.145658 -0.306998
0.071906 1.148047 -0.312695
0.064608 1.131099 -0.306798
0.061624 1.176637 -0.330351
0.058270 1.162410 -0.324518
0.038211 1.163620 -0.328153
-0.079291 0.387766 -0.152020
0.042452 1.147709 -0.320363
0.030284 1.148699 -0.320167
-0.039479 1.509085 0.039944
-0.033409 1.492797 0.036210
-0.019802 1.477872 0.067509
-0.015947 1.459536 0.063122
-0.023189 1.477019 0.050366
-0.032350 1.511418 0.056860
-0.023496 1.496138 0.070629
-0.064654 1.551681 0.039213
-0.055952 1.523645 0.032368
-0.090083 0.390045 -0.139937
-0.515385 2.108759 0.476025
-0.095963 1.799515 0.125654
-0.118771 1.804972 0.122771
0.230209 1.112283 -0.215178
0.230635 1.095841 -0.214851
0.218270 1.115543 -0.195527
0.228390 1.110308 -0.233181
0.226666 1.094215 -0.231346
0.228700 1.065065 -0.198171
0.230445 1.063153 -0.213238
0.219636 1.083486 -0.187503
0.219764 1.035310 -0.177538
0.229071 1.016457 -0.187773
0.220411 1.003219 -0.170288
0.226628 1.046117 -0.220836
0.228884 1.049013 -0.194698
0.230490 1.046783 -0.212560
0.230006 1.030513 -0.211396
0.226194 0.998505 -0.206451
0.206250 1.101703 -0.181492
0.195216 1.118849 -0.182985
0.187397 1.119660 -0.181368
0.207346 1.085694 -0.177035
0.207852 1.069657 -0.173213
0.187230 1.087827 -0.172475
0.191155 1.071656 -0.167492
0.169449 1.121599 -0.176995
0.180181 1.072585 -0.166996
0.167325 1.089378 -0.172732
-0.054592 0.074703 0.139237
-0.059558 0.089905 0.125307
0.207826 1.037534 -0.166689
0.207771 1.052111 -0.169722
0.209797 1.005506 -0.158014
0.194874 1.007589 -0.150382
0.192591 1.039602 -0.159394
-0.049767 1.543738 0.047972
0.173498 1.057261 -0.161972
0.174175 1.025459 -0.152248
0.219563 1.109077 -0.249611
0.217490 1.093105 -0.246985
0.203563 1.109075 -0.260425
0.202621 1.093067 -0.257335
0.215397 1.077135 -0.244342
0.210817 1.057628 -0.240863
0.202490 1.080731 -0.253716
0.188851 1.109636 -0.265585
0.187274 1.093570 -0.263415
0.171520 1.093925 -0.271035
0.184622 1.077706 -0.260255
0.180898 1.062044 -0.256111
0.192911 1.046029 -0.244330
0.203633 1.013897 -0.230642
0.185661 0.998306 -0.235502
0.175760 1.045041 -0.251952
-0.042796 1.558806 0.063068
-0.047711 1.578677 0.066757
0.159778 1.047044 -0.258075
0.174565 1.014439 -0.245651
0.173523 0.998339 -0.243410
0.154646 1.015283 -0.251916
0.149933 0.999555 -0.248995
-0.039976 1.582652 0.083245
-0.040181 1.544542 0.061267
0.220359 0.987156 -0.167069
0.227394 0.984597 -0.184069
0.220854 0.971118 -0.163259
0.227811 0.968339 -0.182188
-0.030385 1.529364 0.078663
0.228376 0.935251 -0.183469
0.221159 0.955072 -0.159655
0.222686 0.966440 -0.201785
0.212361 0.982137 -0.215120
0.209402 0.966331 -0.211678
0.218452 0.934511 -0.196453
0.206245 0.950562 -0.208055
0.223250 0.906988 -0.147574
0.223498 0.922597 -0.154527
0.226910 0.919165 -0.181401
0.227554 0.904403 -0.166648
0.224223 0.903308 -0.178210
0.227644 0.888588 -0.161227
0.223520 0.874880 -0.140731
0.216373 0.871633 -0.173155
0.208454 0.900121 -0.187051
0.208975 0.887615 -0.182090
0.190456 0.871716 -0.189934
0.196218 0.991592 -0.145659
0.197071 0.975571 -0.141464
0.212541 0.959241 -0.147390
-0.188906 1.459238 0.214347
-0.188358 1.457816 0.202620
-0.185822 1.456595 0.193960
0.179661 0.993250 -0.142740
0.177827 0.977052 -0.138548
0.171168 0.945985 -0.130839
0.200223 0.927538 -0.128239
0.214849 0.893320 -0.129640
0.214562 0.877245 -0.126673
0.202629 0.895531 -0.119096
0.191177 0.928471 -0.126414
0.179495 0.929346 -0.126862
0.180936 0.880958 -0.117821
0.178241 0.897166 -0.121661
0.197151 0.982390 -0.223240
0.194164 0.966588 -0.219773
0.181216 0.966797 -0.229742
0.194961 0.934982 -0.208312
0.178490 0.950566 -0.226749
0.175599 0.934747 -0.223369
0.176623 0.982296 -0.237896
-0.099539 0.424508 -0.132967
0.167370 0.966412 -0.239351
0.148785 0.967707 -0.240901
-0.081871 0.123612 0.117168
0.155943 0.935509 -0.230167
0.185008 0.919222 -0.209192
0.182506 0.903330 -0.206172
0.168576 0.903342 -0.215471
0.178190 0.871417 -0.200764
0.161206 0.873048 -0.206820
0.156546 0.919892 -0.222712
0.154832 0.926729 -0.225969
0.159430 0.903967 -0.216329
0.134345 0.966726 -0.232119
0.138112 0.937869 -0.222139
0.142684 0.921658 -0.214471
0.145208 0.906084 -0.207942
0.129060 0.908355 -0.199536
0.145703 0.890046 -0.204133
0.113211 0.924889 -0.209483
0.109626 0.892839 -0.204746
0.108616 0.876666 -0.203099
0.573027 3.628579 0.156240
0.585029 3.643709 0.149233
0.177605 0.579052 -0.030214
0.580192 3.622529 0.172084
0.594186 3.643009 0.158194
0.605739 3.644006 0.169655
0.179527 0.594962 -0.034237
0.591210 3.657891 0.138074
0.601730 3.672277 0.127678
0.614916 3.672405 0.137659
0.609824 3.679446 0.119849
0.620800 3.678771 0.131918
0.633889 3.684646 0.119510
0.619009 3.658458 0.158392
-0.504733 2.116746 0.489561
0.616455 3.644597 0.181909
-0.097953 0.124119 0.110630
-0.099116 0.107976 0.112419
0.631767 3.677970 0.144001
0.644341 3.684607 0.132038
-0.101946 0.075784 0.116461
0.635740 3.750305 0.114906
0.641326 3.749924 0.115438
0.638010 3.743797 0.113085
-0.099577 0.392384 -0.126456
0.665418 3.659411 0.135809
-0.061295 0.059599 0.146123
0.654334 3.684956 0.123769
0.642773 3.732624 0.109155
0.657026 3.731817 0.111919
0.663727 3.731294 0.111991
-0.075658 0.059737 0.137364
0.165205 0.627679 -0.044631
0.664614 3.764298 0.113542
0.648074 3.707640 0.179954
-0.071081 0.045074 0.155845
0.656497 3.638217 0.154713
0.664883 3.678295 0.179932
0.660700 3.689388 0.173122
0.668893 3.689045 0.175739
0.672949 3.704646 0.171287
0.696726 3.704364 0.184949
0.165641 1.110262 -0.275934
0.156679 1.110469 -0.280215
0.139384 1.111112 -0.286418
0.149829 1.079031 -0.272475
0.147706 1.031898 -0.255166
0.147533 1.015829 -0.252078
-0.553358 2.157618 0.452647
-0.557557 2.144147 0.475109
-0.564617 2.175935 0.460951
0.120255 1.067314 -0.265744
0.674211 3.773120 0.195008
0.096292 1.113996 -0.291000
0.674285 3.636270 0.150167
0.088798 1.098116 -0.284556
0.682316 3.651201 0.142713
0.103317 1.082556 -0.273911
0.688861 3.667263 0.135932
0.084989 1.083394 -0.279163
0.080907 1.067798 -0.274690
0.137148 1.048688 -0.259369
0.129075 1.029555 -0.251863
0.125530 1.049698 -0.258624
0.112236 1.050761 -0.258565
0.127355 1.017981 -0.247413
0.684360 3.682140 0.127484
0.131052 1.001777 -0.242846
0.114689 1.001168 -0.237138
0.096940 1.004547 -0.242336
0.088574 1.036237 -0.258192
0.071795 1.035723 -0.265906
0.710370 3.681262 0.137580
-0.543983 2.139211 0.442314
-0.544648 2.155241 0.438323
-0.530997 2.192122 0.466171
0.723546 3.681078 0.144907
-0.527206 2.144807 0.509188
0.080133 1.114860 -0.294568
0.738654 3.697520 0.155066
0.073056 1.099393 -0.291019
0.687676 3.767329 0.154862
0.054774 1.099037 -0.297480
0.069138 1.083766 -0.286695
0.057871 1.084195 -0.290648
0.050618 1.115974 -0.305013
0.715712 3.729344 0.130508
0.041267 1.116516 -0.306720
0.701799 3.713657 0.188568
0.702467 3.742166 0.185271
0.716095 3.767199 0.172946
0.739428 3.730680 0.153605
0.744023 3.745597 0.147970
0.749703 3.760892 0.142026
0.113326 0.988058 -0.231636
0.118652 0.971859 -0.225946
0.105572 0.972805 -0.226726
0.092919 0.988940 -0.237917
0.102746 0.956974 -0.223407
0.100883 0.940962 -0.220974
0.088708 0.957267 -0.230390
0.087255 0.941106 -0.228951
0.710917 3.740651 0.223375
0.716452 3.769542 0.193096
0.714134 3.772771 0.218977
0.061239 0.973319 -0.252280
0.058988 0.957380 -0.249490
0.098402 0.908705 -0.217253
0.085150 0.926168 -0.228916
0.085727 0.908481 -0.227706
0.097827 0.892451 -0.216006
0.097416 0.876166 -0.214909
0.084742 0.875943 -0.225362
0.056680 0.925091 -0.245929
0.054113 0.892849 -0.242130
0.052813 0.876731 -0.240214
0.751396 3.714092 0.164739
0.766688 3.713825 0.172785
0.768947 3.697039 0.171426
0.757501 3.745670 0.157685
0.772663 3.745426 0.165850
0.775539 3.696938 0.175018
0.796077 3.697151 0.190694
0.799738 3.729188 0.185888
0.792588 3.760650 0.168913
0.814068 3.729101 0.194819
0.831482 3.731956 0.204408
0.821670 3.747170 0.190638
0.837914 3.759951 0.193556
-0.113463 0.629785 -0.075020
0.843634 3.728756 0.211845
0.855730 3.760991 0.201079
0.860288 3.743553 0.209073
-0.113977 0.613520 -0.073828
-0.115564 0.597457 -0.071649
-0.115442 0.598310 -0.064313
-0.504857 2.189246 0.474638
0.052657 0.680993 0.052985
0.719829 3.796244 0.142764
0.743977 3.794691 0.145856
0.052264 0.697035 0.049285
-0.066443 1.870747 0.160222
-0.068726 1.880681 0.161905
-0.603177 2.215222 0.509440
-0.596215 2.214929 0.491486
-0.595085 2.231044 0.489426
-0.600322 2.252207 0.503696
-0.587279 2.246935 0.496917
-0.586964 2.266098 0.515941
-0.574861 2.210361 0.467072
-0.554548 2.222372 0.486703
-0.565456 2.236721 0.496197
-0.568968 2.265508 0.520420
-0.558322 2.247149 0.511345
-0.554152 2.240160 0.507782
-0.546467 2.262677 0.511543
-0.534429 2.260458 0.500803
0.052083 0.713087 0.045814
-0.559918 2.280890 0.517486
-0.565376 2.315542 0.528762
-0.560432 2.325607 0.532084
-0.548490 2.324281 0.521057
-0.536118 2.276438 0.495707
-0.546131 2.310875 0.502078
-0.536911 2.318373 0.510569
-0.544028 2.208630 0.477542
-0.533990 2.209918 0.486403
0.683598 3.787881 0.202201
0.689811 3.804855 0.195689
0.707114 3.806196 0.224025
0.707485 3.806741 0.223656
-0.523740 2.226053 0.495161
0.729731 3.787606 0.203847
0.697254 3.819820 0.188121
0.719789 3.820795 0.211617
-0.512346 2.207742 0.487002
-0.511590 2.223839 0.484541
-0.513932 2.239788 0.478742
-0.514703 2.255813 0.474636
0.738633 3.802713 0.210441
-0.503229 2.221445 0.469839
0.732506 3.774527 0.246303
-0.508783 2.253985 0.463105
-0.517156 2.290607 0.489151
-0.506906 2.276870 0.478816
-0.510745 2.289907 0.487531
0.740716 3.797233 0.165267
-0.081059 1.871159 0.150173
-0.076085 1.853593 0.147697
-0.072399 1.904587 0.164263
-0.086518 1.904635 0.155138
-0.100479 1.905192 0.150444
-0.102826 1.889985 0.146143
-0.083384 0.031021 0.167882
-0.091611 0.016619 0.179708
0.790226 3.826119 0.164635
0.779510 3.807603 0.156762
-0.041563 1.772698 0.164500
-0.034507 1.737249 0.180131
-0.037040 1.720577 0.161756
-0.035020 1.839932 0.199093
-0.033549 1.824833 0.211532
-0.034515 1.823476 0.199346
-0.668084 2.362329 0.577525
-0.651170 2.360564 0.569819
-0.657255 2.381692 0.609625
-0.650571 2.395155 0.614144
-0.639716 2.389174 0.602885
-0.640219 2.370040 0.581964
-0.628762 2.358778 0.571549
-0.631117 2.377350 0.590365
-0.605369 2.357485 0.571758
-0.033444 1.809179 0.218335
-0.033561 1.806936 0.199189
-0.033760 1.790215 0.196726
-0.033295 1.843696 0.232241
-0.098583 0.793211 -0.073785
-0.033649 1.825915 0.220664
0.756324 3.792373 0.134497
0.812684 3.775842 0.171820
0.816488 3.791490 0.167602
0.838203 3.790930 0.177495
0.846683 3.788749 0.184151
0.833674 3.822597 0.164024
0.851679 3.806452 0.178736
0.854988 3.775252 0.195352
0.861223 3.790901 0.192788
-0.277706 -0.096930 -0.001770
-0.271673 -0.087205 0.014432
-0.264548 -0.089372 0.010992
-0.036642 1.811416 0.235187
-0.264855 -0.125237 -0.079139
-0.287237 -0.116483 -0.080976
-0.265345 -0.105785 -0.035083
-0.277231 -0.103750 -0.024139
-0.265084 -0.115328 -0.057132
0.877159 3.818032 0.154575
-0.253502 -0.121182 -0.067626
-0.253632 -0.110003 -0.045769
-0.243411 -0.113135 -0.058299
-0.254282 -0.105389 -0.023140
-0.266090 -0.102361 -0.012313
-0.242733 -0.098853 -0.011919
-0.242294 -0.106135 -0.034235
-0.230251 -0.106184 -0.045412
0.080919 0.660691 0.039289
0.067970 0.696431 0.042988
-0.039211 1.821866 0.181633
-0.241588 -0.122860 -0.078612
-0.241535 -0.135998 -0.100227
-0.235467 -0.116835 -0.073188
-0.217610 -0.111529 -0.079138
-0.217472 -0.121479 -0.101125
-0.204895 -0.115925 -0.112976
-0.195509 -0.106507 -0.102802
-0.204265 -0.102849 -0.066402
-0.194548 -0.098914 -0.056643
-0.172032 -0.118799 -0.076669
-0.047048 1.820624 0.166650
-0.050594 1.836847 0.166489
0.071050 0.710702 0.038339
-0.177875 -0.109239 -0.114107
-0.170735 -0.115274 -0.100256
-0.159019 -0.119449 -0.110948
-0.169796 -0.116242 -0.123315
-0.160428 -0.124379 -0.087196
-0.136994 -0.109349 -0.111226
-0.134117 -0.109278 -0.134510
-0.124962 -0.099008 -0.126654
0.081748 0.692852 0.033631
-0.126834 -0.100624 -0.141650
-0.114372 -0.085236 -0.142230
-0.114490 -0.083977 -0.131612
-0.120684 -0.091836 -0.147745
-0.102117 -0.069938 -0.143714
-0.107219 -0.071061 -0.161373
-0.093099 -0.057888 -0.152615
-0.095238 -0.057561 -0.173664
-0.085656 -0.060123 -0.188973
-0.036976 1.788612 0.180936
-0.044715 1.803825 0.165222
-0.043203 1.787180 0.164550
-0.035749 1.776947 0.222393
-0.034256 1.774071 0.198960
-0.037699 1.760393 0.220166
-0.034975 1.757937 0.201122
-0.038917 1.744276 0.222129
-0.035177 1.741735 0.203070
-0.035373 1.729579 0.204456
-0.039843 1.779142 0.238290
-0.039446 1.761556 0.228873
-0.040874 1.745463 0.230905
-0.044625 1.730733 0.242966
-0.049859 1.787144 0.152531
-0.045558 1.752296 0.146040
-0.058861 1.768553 0.135446
-0.054411 1.750065 0.132128
-0.038715 1.719856 0.154495
-0.041660 1.718842 0.143893
-0.050655 1.734290 0.129336
-0.075921 1.772144 0.126591
-0.068113 1.751326 0.122564
-0.062258 1.733865 0.117896
-0.098588 0.794627 -0.061758
-0.098437 0.795786 -0.051807
-0.657775 2.335687 0.643543
-0.662139 2.340075 0.671966
-0.662184 2.338855 0.661559
-0.669791 2.356932 0.675158
-0.646836 2.325135 0.656764
-0.056925 1.819876 0.153622
-0.059754 1.838074 0.155449
-0.658060 2.343193 0.688618
-0.650283 2.359222 0.702922
-0.656729 2.341903 0.691146
-0.648283 2.319715 0.680574
-0.654551 2.324699 0.686173
-0.652054 2.325217 0.675354
-0.660677 2.340909 0.680033
-0.065476 1.802517 0.140094
-0.083545 1.819256 0.134184
-0.087927 1.836851 0.137197
0.051798 0.729135 0.042232
-0.080435 1.802722 0.131742
-0.077259 1.785765 0.129540
-0.097927 1.786560 0.122350
-0.090180 1.769226 0.120032
-0.812946 2.509008 0.802873
-0.813306 2.510175 0.777965
-0.800021 2.497887 0.791363
-0.800621 2.499700 0.769613
-0.795645 2.493225 0.765279
-0.789735 2.485078 0.760150
-0.796173 2.507742 0.748529
-0.790388 2.489656 0.782785
-0.103863 0.635789 -0.017510
-0.801968 2.508361 0.814939
-0.789542 2.498298 0.803848
0.052019 0.745206 0.039193
-0.076046 0.808288 -0.209988
-0.075396 0.824380 -0.212564
-0.065181 0.789952 -0.218717
-0.064310 0.806055 -0.221056
-0.063626 0.822148 -0.223593
-0.799116 2.485320 0.835533
-0.084437 0.858863 -0.205147
-0.074537 0.840482 -0.214915
-0.062590 0.838258 -0.225753
-0.061498 0.854370 -0.227854
0.068707 0.727145 0.036739
-0.763435 2.477170 0.790350
-0.769557 2.388209 0.729007
-0.754515 2.389939 0.753867
-0.758712 2.418770 0.734269
-0.759158 2.437294 0.733868
-0.740034 2.421727 0.754261
-0.767080 2.456250 0.740389
-0.768033 2.467751 0.762996
-0.828980 2.530619 0.781037
-0.817617 2.528367 0.769569
-0.816985 2.544458 0.766975
-0.824040 2.562973 0.779808
-0.816662 2.560534 0.764045
-0.807505 2.542117 0.753478
-0.806328 2.558234 0.751471
-0.792302 2.556108 0.742872
-0.821401 2.611281 0.772824
-0.808712 2.609093 0.762783
-0.797217 2.606847 0.751458
-0.788510 2.604469 0.737129
-0.779761 2.553912 0.732673
-0.726412 2.372218 0.706332
-0.714448 2.371171 0.695272
-0.700596 2.380090 0.707166
-0.721427 2.386333 0.745541
-0.040443 1.614363 0.102109
-0.046861 1.613843 0.086650
-0.714947 2.417337 0.733869
-0.713145 2.413182 0.736674
-0.715178 2.433387 0.730344
-0.705350 2.416038 0.729312
-0.702118 2.431215 0.720706
-0.702896 2.417908 0.746852
-0.699495 2.417542 0.746038
0.081968 0.724985 0.027317
-0.680326 2.381221 0.729842
-0.671403 2.378908 0.716204
-0.668813 2.377426 0.719322
-0.666091 2.427342 0.712099
-0.725890 2.494334 0.681991
-0.701053 2.457809 0.667883
-0.712894 2.476098 0.675559
-0.696554 2.490142 0.666178
-0.706975 2.440411 0.725690
-0.704585 2.445128 0.727324
-0.699633 2.441704 0.721267
-0.696381 2.449680 0.741736
-0.686911 2.452946 0.732803
-0.681958 2.445441 0.715440
-0.666906 2.444149 0.714619
-0.112040 0.618361 -0.031381
-0.657560 2.416588 0.626453
-0.657049 2.373860 0.708559
-0.687567 2.455657 0.658703
-0.677596 2.453339 0.645735
-0.673332 2.485663 0.643777
-0.667589 2.434964 0.636082
-0.654437 2.448857 0.623266
-0.660663 2.483473 0.633717
-0.650741 2.465093 0.623971
-0.647539 2.481795 0.628304
-0.037433 1.598314 0.100809
-0.033344 1.583520 0.117614
-0.034852 1.581468 0.099155
-0.043189 1.596792 0.083991
-0.681932 2.400049 0.749004
-0.675176 2.382857 0.747218
-0.680282 2.381278 0.730348
-0.029369 1.550318 0.117662
-0.029085 1.535274 0.129778
-0.658176 2.427716 0.720626
-0.027346 1.532568 0.107943
-0.027925 1.531084 0.094938
-0.030637 1.487019 0.137934
-0.024009 1.484122 0.117782
-0.025456 1.468413 0.123084
-0.023314 1.467374 0.115686
-0.031981 1.470895 0.139762
-0.710635 2.508326 0.671441
-0.694909 2.522343 0.661398
-0.020560 1.481917 0.101371
-0.021960 1.497561 0.093613
-0.020557 1.465856 0.104651
-0.017194 1.463449 0.086460
-0.034578 1.690719 0.189213
-0.034384 1.673595 0.183583
-0.037262 1.658470 0.192874
-0.035974 1.657533 0.185765
-0.033741 1.671909 0.169682
-0.034169 1.655828 0.172498
-0.604388 2.193579 0.584069
-0.560136 2.203238 0.581643
-0.555731 2.207985 0.599575
-0.562296 2.206287 0.580711
-0.034449 1.638283 0.162968
-0.049099 1.593667 0.193225
-0.042714 1.590902 0.174032
-0.040980 1.712511 0.230329
-0.043730 1.679804 0.230048
-0.048060 1.663539 0.228659
-0.041963 1.662683 0.212879
-0.098222 0.031203 0.159419
-0.114022 0.602371 -0.028840
-0.043701 1.696909 0.235664
-0.115483 0.586283 -0.026777
-0.059961 1.667237 0.252061
-0.055661 1.665969 0.244181
-0.053562 1.644024 0.225442
0.070803 0.775428 0.029170
-0.046856 1.644745 0.209523
-0.050998 1.628488 0.208337
-0.047014 1.626880 0.197361
-0.053544 1.612307 0.208870
-0.054369 1.595737 0.207255
-0.072235 1.600940 0.239429
-0.039205 1.685197 0.139149
-0.043446 1.683852 0.124860
-0.038351 1.648614 0.121130
-0.040488 1.702260 0.143534
0.224537 0.794624 -0.123257
0.227132 0.793433 -0.131625
0.224789 0.778576 -0.119709
0.227036 0.777090 -0.130818
0.225342 0.746480 -0.112561
0.225252 0.744702 -0.127739
0.214742 0.860913 -0.123147
0.200641 0.847620 -0.108305
0.224363 0.827872 -0.130469
0.202504 0.831281 -0.106127
0.195687 0.832057 -0.104134
0.192794 0.816238 -0.100754
0.215842 0.780942 -0.105639
0.205516 0.757187 -0.087739
0.185839 0.798281 -0.094253
0.184136 0.785481 -0.088452
-0.611307 2.279535 0.606430
-0.603060 2.269541 0.618573
-0.615126 2.282128 0.651448
-0.055304 1.699837 0.112936
-0.051792 1.682817 0.110425
-0.606679 2.266082 0.639625
0.226002 0.729216 -0.105992
0.223075 0.712387 -0.124297
0.228227 0.698434 -0.099626
0.229066 0.682413 -0.095447
0.222316 0.696168 -0.122880
0.221337 0.679990 -0.121261
-0.050356 1.664930 0.104836
0.229682 0.648302 -0.105385
0.219313 0.664008 -0.118680
0.217074 0.648067 -0.115901
0.231296 0.636090 -0.083944
0.232484 0.617872 -0.082577
0.215073 0.632080 -0.113341
0.206219 0.735093 -0.082469
0.206312 0.719037 -0.079094
0.219269 0.684739 -0.082291
0.206333 0.702977 -0.075794
0.191278 0.738912 -0.073378
0.192548 0.705114 -0.066936
0.192297 0.689041 -0.063931
0.182468 0.706247 -0.064107
0.176594 0.690786 -0.059700
0.221874 0.652741 -0.072933
0.220932 0.666100 -0.076683
0.221809 0.636677 -0.069728
0.208724 0.638847 -0.060115
0.194062 0.623356 -0.049107
0.176902 0.658980 -0.050255
-0.112384 0.615824 -0.053180
-0.112994 0.617276 -0.041243
-0.640964 2.319547 0.651560
-0.635685 2.313836 0.646911
-0.617646 2.319323 0.665400
-0.607590 2.302126 0.665802
-0.601667 2.315956 0.659178
-0.614089 2.335845 0.668437
-0.616107 2.351518 0.660506
-0.607792 2.333061 0.649031
-0.607936 2.349115 0.645600
-0.582197 2.312634 0.632462
-0.600589 2.330343 0.635659
-0.594194 2.329734 0.629926
-0.587102 2.344413 0.644927
-0.576956 2.327901 0.636234
0.232428 0.586208 -0.072169
0.234662 0.584524 -0.084977
0.233708 0.570208 -0.067514
0.234389 0.554180 -0.063505
0.232002 0.552300 -0.081092
0.223053 0.584100 -0.096411
0.206918 0.584526 -0.103681
0.216819 0.552547 -0.089239
0.203763 0.569259 -0.099870
0.233426 0.538219 -0.060026
0.224694 0.520947 -0.072932
0.230369 0.488167 -0.054467
0.220529 0.489006 -0.067661
0.214491 0.488994 -0.071838
0.221529 0.604542 -0.063477
0.221916 0.588501 -0.059784
0.208143 0.606698 -0.054189
0.208416 0.590650 -0.050620
0.223182 0.553836 -0.051338
0.209670 0.558588 -0.042717
0.187561 0.609724 -0.042364
0.200017 0.553098 -0.095895
0.223534 0.524333 -0.044938
0.223690 0.508280 -0.041493
0.211560 0.510496 -0.030852
0.196257 0.544682 -0.030181
0.196636 0.537370 -0.092065
0.194395 0.521430 -0.089283
0.207760 0.505162 -0.078747
0.206210 0.489091 -0.076602
0.220578 0.363586 -0.015364
0.220020 0.371398 -0.017563
0.210653 0.381967 -0.005622
0.218100 0.379989 -0.017404
0.210595 0.365903 -0.002409
0.211334 0.414078 -0.011393
0.200027 0.423057 -0.001275
0.218108 0.474505 -0.064777
0.215089 0.424580 -0.059781
0.208995 0.424491 -0.064654
0.223466 0.408359 -0.045028
0.227750 0.377197 -0.034622
0.226557 0.375946 -0.046061
0.209808 0.376087 -0.056162
0.209117 0.360219 -0.051417
0.206431 0.408309 -0.064141
0.227739 0.473894 -0.051461
0.212749 0.478431 -0.023019
0.215591 0.457209 -0.061680
0.219908 0.443858 -0.032465
0.210980 0.446225 -0.018373
0.210976 0.430164 -0.015102
0.214606 0.441033 -0.060055
0.199179 0.448455 -0.007378
0.199657 0.432418 -0.003587
0.204823 0.472990 -0.074607
0.191168 0.472951 -0.084159
0.185702 0.441253 -0.077691
0.218687 0.411679 -0.027229
0.218724 0.395620 -0.023913
0.182228 0.409953 -0.066506
0.173567 0.410807 -0.065090
-0.586814 2.243940 0.604618
-0.581690 2.235237 0.600244
-0.602150 2.268211 0.595558
-0.592615 2.257263 0.587189
-0.598200 2.262438 0.614374
-0.573168 2.220635 0.565494
-0.583379 2.229484 0.623860
-0.590034 2.245230 0.613414
-0.033573 1.637006 0.152706
-0.577947 2.336588 0.559362
-0.565899 2.334368 0.548633
-0.572096 2.311827 0.632430
-0.034766 1.619379 0.141863
-0.035170 1.618080 0.130552
-0.043140 1.632108 0.104622
-0.520200 2.100546 0.549086
-0.526494 2.118089 0.554158
-0.520155 2.100525 0.548940
-0.523990 2.133981 0.551134
-0.044847 1.558957 0.180649
-0.048189 1.526410 0.181322
-0.055517 1.545182 0.196140
-0.057990 1.529004 0.196750
-0.051169 1.511268 0.183861
-0.062960 1.494254 0.196166
-0.058211 1.577758 0.210143
-0.070306 1.566120 0.224349
-0.562817 2.202532 0.556309
-0.547909 2.192688 0.548529
-0.518051 2.149228 0.544953
-0.526570 2.163851 0.529989
-0.061235 1.563761 0.210413
-0.505100 2.182123 0.553714
-0.512243 2.201601 0.559488
-0.502960 2.200684 0.573139
-0.502273 2.198956 0.572578
-0.495402 2.182904 0.566905
-0.507597 2.106294 0.537135
-0.513521 2.114111 0.529102
-0.516966 2.099939 0.546111
-0.493679 2.125533 0.499783
-0.483803 2.102500 0.515216
0.228044 0.860071 -0.157257
0.226177 0.823970 -0.152295
0.223647 0.809483 -0.151323
0.208570 0.808075 -0.159495
0.185603 0.839904 -0.184032
0.196239 0.824149 -0.170983
0.194112 0.808186 -0.168308
0.220410 0.792093 -0.147555
0.202802 0.776434 -0.152751
0.215414 0.760308 -0.141521
0.212991 0.744401 -0.138572
0.189077 0.776408 -0.162238
0.184965 0.760553 -0.159987
0.185056 0.748197 -0.156439
0.179925 0.864886 -0.113323
0.181489 0.833076 -0.105058
0.167279 0.802063 -0.098675
0.167165 0.745195 -0.162755
0.174379 0.855770 -0.196538
0.166878 0.856138 -0.198478
0.173263 0.808258 -0.181772
0.138712 0.844322 -0.178128
0.160447 0.809300 -0.181565
-0.037521 1.473392 0.017468
0.153257 0.810100 -0.179615
0.136043 0.812075 -0.174451
0.129103 0.812580 -0.174842
0.105718 0.844487 -0.198994
0.114125 0.829149 -0.183895
0.113902 0.812830 -0.182972
0.105187 0.828225 -0.197787
0.154200 0.793290 -0.175446
0.152745 0.778236 -0.171222
0.131576 0.796147 -0.173055
0.155428 0.762021 -0.167448
0.129433 0.763814 -0.169747
0.128235 0.747642 -0.168231
0.113983 0.796453 -0.182327
0.104887 0.779197 -0.195353
0.113840 0.763757 -0.180757
0.105353 0.746156 -0.194334
0.210498 0.728507 -0.135560
0.208457 0.712528 -0.132963
0.192297 0.712727 -0.142180
0.207119 0.696418 -0.131014
0.205756 0.680312 -0.129041
0.191397 0.696650 -0.139647
0.188911 0.728695 -0.148533
0.203687 0.664338 -0.126418
0.201492 0.648389 -0.123680
0.188866 0.648541 -0.130905
0.178833 0.712884 -0.149936
0.176175 0.697021 -0.146772
0.173907 0.681085 -0.143967
0.160839 0.681972 -0.145239
0.151275 0.682730 -0.145259
0.177948 0.617482 -0.122695
0.147404 0.667095 -0.140980
0.163830 0.637941 -0.131364
0.169354 0.618133 -0.122963
0.141910 0.638615 -0.132692
0.156044 0.729928 -0.160232
0.139951 0.714976 -0.158394
0.125798 0.715280 -0.165363
0.133118 0.697985 -0.154910
0.109058 0.730493 -0.187142
0.104931 0.730104 -0.193237
0.115381 0.715520 -0.177356
0.114050 0.681910 -0.177355
0.103855 0.681221 -0.190089
0.138767 0.667657 -0.142032
0.118838 0.666862 -0.162235
0.118135 0.650718 -0.160150
0.126515 0.619328 -0.141719
0.118920 0.636024 -0.157234
0.112098 0.649552 -0.174122
0.102580 0.648737 -0.187479
0.101303 0.632615 -0.185585
0.096982 0.859886 -0.213790
0.096301 0.843653 -0.212444
0.083995 0.859722 -0.223955
0.095644 0.827414 -0.211121
0.082952 0.827195 -0.221557
0.082102 0.810992 -0.220056
0.069824 0.860030 -0.230897
0.051594 0.860598 -0.238375
0.065964 0.827453 -0.230821
0.067514 0.811127 -0.228750
0.094414 0.794922 -0.208551
0.080818 0.794872 -0.218156
0.066577 0.794942 -0.227169
0.066005 0.778687 -0.225923
0.058644 0.795138 -0.230849
0.065410 0.762438 -0.224657
0.064003 0.746340 -0.222644
0.049969 0.746799 -0.228214
0.093016 0.729896 -0.204465
0.091710 0.713609 -0.202580
0.089881 0.697412 -0.201691
0.087853 0.681144 -0.201549
0.077607 0.713666 -0.211608
0.076366 0.697538 -0.209746
0.075293 0.681378 -0.208040
0.062796 0.730206 -0.220814
0.062384 0.713921 -0.219716
0.048687 0.730669 -0.226388
0.047047 0.714438 -0.225674
0.061445 0.697735 -0.218134
0.059859 0.681672 -0.215956
0.044313 0.682108 -0.222731
0.088310 0.632451 -0.195745
0.086946 0.616346 -0.193772
0.074049 0.616624 -0.200109
0.058203 0.665621 -0.213712
0.056957 0.649493 -0.211847
0.195908 0.600771 -0.112819
0.190239 0.585054 -0.110450
-0.116342 0.600205 -0.048819
-0.116524 0.601048 -0.041770
0.184490 0.553410 -0.103723
0.169502 0.569888 -0.113564
0.168385 0.554903 -0.110887
0.147781 0.587686 -0.116738
0.144470 0.555272 -0.114905
0.132644 0.571695 -0.123086
0.162190 0.522269 -0.103884
0.174831 0.505697 -0.096421
0.173978 0.489676 -0.093386
0.142526 0.521754 -0.108333
0.130200 0.505821 -0.118292
0.121214 0.602583 -0.147840
0.122744 0.570629 -0.138824
0.116550 0.569511 -0.152508
0.125235 0.603207 -0.139822
0.124191 0.587041 -0.138142
0.108361 0.584808 -0.167807
0.098488 0.600420 -0.181557
0.108115 0.568493 -0.166861
0.107566 0.552234 -0.165638
0.123531 0.521719 -0.134659
0.116653 0.536769 -0.151164
0.116957 0.487628 -0.149286
0.107549 0.535876 -0.164903
0.095408 0.535552 -0.175848
0.094478 0.519365 -0.174272
0.107029 0.503250 -0.162987
0.094003 0.503092 -0.173117
0.172836 0.473126 -0.089769
0.174759 0.457782 -0.084381
0.150370 0.475735 -0.088036
0.155514 0.459660 -0.081404
0.162326 0.427861 -0.067514
0.144222 0.460195 -0.084477
0.151527 0.428702 -0.067646
0.141689 0.444309 -0.081428
0.129891 0.474367 -0.113475
0.134007 0.442753 -0.099835
0.163128 0.411838 -0.063374
0.148548 0.412900 -0.064187
0.138196 0.412241 -0.076777
0.146334 0.380592 -0.060711
0.146060 0.364283 -0.059740
0.136062 0.363556 -0.072657
0.133919 0.411034 -0.094967
0.128122 0.408927 -0.111737
0.126714 0.376469 -0.109002
0.123580 0.472624 -0.132548
0.115000 0.438656 -0.145424
0.114202 0.422775 -0.143215
0.106214 0.470679 -0.160799
0.093523 0.470460 -0.171237
0.105043 0.438176 -0.158284
0.094448 0.438028 -0.166692
0.091261 0.422604 -0.168089
0.121356 0.407595 -0.127625
0.117418 0.390824 -0.133052
0.112192 0.390352 -0.140590
0.120218 0.373331 -0.126267
0.111753 0.374073 -0.139466
0.111471 0.357764 -0.138489
0.103243 0.405791 -0.155190
0.088662 0.405404 -0.168314
0.101088 0.373472 -0.151769
0.088961 0.356784 -0.162007
0.085737 0.600211 -0.191940
0.085097 0.583970 -0.190633
0.072626 0.600455 -0.198715
0.070974 0.584251 -0.197769
0.084216 0.567773 -0.189103
0.082956 0.551648 -0.187226
0.069534 0.568095 -0.196279
0.068180 0.551955 -0.194590
0.053209 0.584750 -0.205523
0.036254 0.583804 -0.212136
0.080800 0.519329 -0.183803
0.080619 0.486641 -0.182199
0.063611 0.503385 -0.191146
0.049209 0.536416 -0.199686
0.032904 0.537111 -0.204778
0.046927 0.487759 -0.195429
0.030125 0.504775 -0.201927
0.077490 0.421781 -0.176443
0.056063 0.454952 -0.188544
0.045814 0.471607 -0.193686
0.024950 0.441156 -0.195127
0.083417 0.389214 -0.169681
0.077085 0.405495 -0.175352
0.060084 0.406085 -0.181825
0.078121 0.373067 -0.170708
0.058068 0.357378 -0.177813
0.022367 0.408018 -0.190839
0.021070 0.391861 -0.189258
0.039789 0.374567 -0.183829
0.038424 0.358462 -0.181855
0.018504 0.359697 -0.184804
-0.489319 2.080346 0.538017
-0.080283 1.533527 0.220153
-0.081646 1.568374 0.235842
-0.502397 2.099808 0.554822
-0.496994 2.100908 0.549758
-0.084120 1.560736 0.234710
-0.474979 2.126418 0.519929
-0.110452 0.555218 -0.007854
-0.088444 0.957828 -0.205410
-0.116680 0.570146 -0.024957
0.228962 0.345247 -0.025791
0.210795 0.349852 0.001083
0.211537 0.333826 0.005158
0.214591 0.301849 0.015000
0.225608 0.300843 0.002680
0.224841 0.315606 -0.000944
0.224038 0.313574 -0.018753
0.199882 0.352125 0.013035
0.200005 0.336070 0.016443
0.200531 0.320034 0.020287
0.224787 0.292523 0.003706
0.216655 0.268476 0.012310
0.219982 0.267193 0.003650
0.211799 0.253535 0.021820
0.216459 0.252152 0.013210
0.212574 0.237510 0.025930
0.218587 0.251066 0.005424
0.199539 0.288079 0.027591
0.200917 0.295361 0.025738
0.199865 0.255759 0.032673
0.201151 0.239759 0.037334
0.221145 0.344238 -0.039644
0.217167 0.331811 -0.035404
0.211457 0.313333 -0.029292
0.209031 0.297426 -0.026341
0.184922 0.347469 -0.050191
0.184066 0.329930 -0.046499
0.161705 0.347318 -0.053579
0.160319 0.331226 -0.051502
0.181625 0.297656 -0.042895
0.157425 0.298915 -0.048522
0.208720 0.281123 -0.025335
0.208886 0.264731 -0.024770
0.208208 0.248496 -0.023427
0.195124 0.248350 -0.033503
0.194304 0.232142 -0.032030
0.177142 0.249060 -0.039604
0.218209 0.187125 -0.006677
0.228769 0.136334 0.015615
0.219824 0.150749 -0.007685
0.233629 0.101486 0.003779
0.225381 0.100621 -0.010642
0.071271 0.807571 0.023121
0.212406 0.205382 0.032302
0.216490 0.216821 -0.007494
0.215710 0.200109 -0.010272
0.223991 0.168930 0.009875
0.211424 0.189274 0.034520
0.211044 0.173196 0.037386
0.202196 0.223748 0.041735
0.202329 0.207694 0.045154
0.201610 0.191599 0.047656
0.200989 0.175509 0.050262
0.227761 0.121740 0.030677
0.222019 0.135977 0.034925
0.224912 0.106820 0.041721
0.200032 0.126819 0.055133
0.197342 0.110067 0.059343
0.221269 0.154829 0.027967
0.211694 0.157166 0.041362
0.208252 0.199403 -0.021311
0.207960 0.206725 -0.021362
0.208895 0.182921 -0.021183
0.209551 0.150075 -0.020348
0.210179 0.133596 -0.020206
0.194759 0.133887 -0.028135
0.210896 0.101675 -0.021451
0.211099 0.117061 -0.020334
0.194223 0.101265 -0.026204
0.188192 0.150474 -0.031376
0.185951 0.134307 -0.030515
0.174288 0.216629 -0.037607
0.167022 0.200444 -0.040300
0.157392 0.217504 -0.041580
0.178142 0.183488 -0.037118
0.160821 0.184458 -0.043886
0.176952 0.150989 -0.034585
0.176134 0.134780 -0.033114
0.160633 0.151449 -0.041686
0.159593 0.135283 -0.040010
-0.081040 0.923267 -0.214592
-0.070859 0.904899 -0.224056
-0.079937 0.939380 -0.216679
-0.078754 0.955497 -0.218680
-0.066474 0.953289 -0.229160
-0.053982 0.935029 -0.236136
-0.077595 0.971612 -0.220707
-0.075734 0.987761 -0.221978
-0.111831 0.539116 -0.005866
-0.097667 0.044859 0.136076
0.356827 -0.099541 0.054011
0.334336 -0.094676 0.080370
0.331898 -0.089509 0.076667
0.378774 -0.106055 0.033882
-0.104556 0.059912 0.119581
0.356595 -0.094745 0.031745
0.344790 -0.091693 0.042569
0.357739 -0.093143 0.008384
0.333607 -0.093608 0.030804
0.333196 -0.085978 0.053079
0.321791 -0.079210 0.063579
0.323244 -0.098021 -0.003838
0.334915 -0.102758 -0.014464
0.313990 -0.101938 0.004924
0.315240 -0.101160 0.012379
0.317791 -0.100049 0.023541
0.315773 -0.098345 0.036663
0.310742 -0.103745 0.008017
-0.030645 1.077892 -0.264187
-0.033081 1.142020 -0.279915
-0.509902 2.162465 0.523172
-0.502861 2.148784 0.530872
-0.018331 1.075686 -0.274630
-0.029159 1.140889 -0.286874
-0.024131 1.139654 -0.293981
-0.010326 1.121457 -0.299544
0.004556 1.135432 -0.310494
-0.100429 0.039157 0.138891
-0.113950 0.020595 0.152257
-0.112619 0.030116 0.128374
-0.506396 2.178692 0.523673
-0.122360 0.013850 0.143514
-0.493459 2.141986 0.499997
-0.036418 1.173983 -0.290062
0.255703 -0.018096 -0.020722
0.251591 -0.035190 -0.029002
0.248649 -0.026636 -0.026647
-0.040495 1.160519 -0.267468
0.299169 -0.046720 -0.094886
0.284273 -0.044147 -0.082245
0.271882 -0.042544 -0.091969
-0.042942 1.191934 -0.276414
0.262295 -0.045055 -0.105170
0.242554 -0.034779 -0.031611
0.308725 -0.061655 -0.075594
0.306579 -0.055694 -0.079142
0.292689 -0.058751 -0.065692
0.314973 -0.077012 -0.063597
0.308960 -0.090975 -0.045080
0.313077 -0.099960 -0.038772
-0.042671 1.237930 -0.309902
-0.045080 1.239445 -0.298657
-0.043818 1.253937 -0.314412
-0.047847 1.271211 -0.297721
-0.048671 1.260672 -0.273473
-0.045055 1.224546 -0.285485
-0.045751 1.225811 -0.275205
-0.046366 1.240545 -0.290173
0.298545 -0.104244 -0.025095
0.317952 -0.106611 -0.032116
0.278932 -0.100089 -0.003026
0.277445 -0.093525 -0.005981
0.273697 -0.083219 -0.002954
0.267751 -0.065369 0.001866
0.272796 -0.097590 0.014072
0.287312 -0.073150 -0.047968
0.277666 -0.070818 -0.034651
0.293625 -0.088912 -0.037892
0.281261 -0.086707 -0.027502
0.276069 -0.069905 -0.027970
0.263011 -0.053694 -0.038789
0.275289 -0.084201 -0.010226
0.303920 -0.063972 -0.098538
0.306428 -0.070412 -0.100583
-0.132940 0.109118 0.099308
0.272885 -0.062701 -0.114794
0.272327 -0.079919 -0.115617
0.258409 -0.061247 -0.106091
0.274899 -0.096453 -0.114629
-0.032883 1.203482 -0.316514
-0.030838 1.186599 -0.309772
0.269326 -0.055763 -0.066788
-0.115953 0.092172 0.106514
0.258986 -0.060985 -0.056960
-0.120218 0.076206 0.107725
0.229815 -0.051442 -0.042060
0.248561 -0.066180 -0.091512
-0.122333 0.092408 0.104221
0.223659 -0.076348 -0.067949
0.211915 -0.072520 -0.057217
0.212278 -0.080763 -0.079420
0.200332 -0.079489 -0.068387
0.235467 0.088469 0.032659
0.243176 0.070633 0.019121
0.245571 0.054036 0.026386
0.237280 0.040372 0.044439
0.233648 0.049985 -0.016089
0.231339 0.064766 -0.014596
0.237127 0.032970 -0.018571
0.237564 0.084576 0.000984
0.228453 0.083683 -0.012749
0.266066 0.017306 0.007599
0.266284 0.016342 -0.000448
0.262962 0.027509 0.002145
0.255982 0.019618 0.020445
0.254429 -0.012577 0.025324
0.253045 -0.028703 0.027108
0.234328 0.008111 0.047811
0.242939 -0.026393 0.039931
0.256697 0.015539 -0.013742
0.239955 0.016163 -0.020598
0.242654 -0.000789 -0.022217
0.246104 -0.017798 -0.024673
0.212801 0.092974 0.055658
0.209746 0.044648 0.062195
0.194768 0.095335 0.063548
0.199153 0.046936 0.074493
0.221214 0.026340 0.054117
0.219758 0.010211 0.055824
0.208155 0.012451 0.067033
0.219441 -0.005865 0.058758
0.208178 -0.019337 0.076441
0.198935 0.031405 0.082122
0.201575 -0.001132 0.086929
0.201452 -0.017198 0.090072
0.223793 0.050216 -0.020784
0.216080 0.067042 -0.022759
0.195656 0.084634 -0.026803
0.196244 0.051402 -0.029300
0.200490 0.034642 -0.029093
0.175998 0.086313 -0.031796
0.164092 0.067710 -0.039607
0.189171 0.035305 -0.031098
-0.145764 0.126210 0.096134
0.164419 0.052569 -0.040855
0.223618 0.000181 -0.026818
0.225986 -0.015850 -0.029868
0.232957 -0.034294 -0.033972
-0.147778 0.093993 0.100516
0.203410 -0.015006 -0.029614
0.186941 0.003078 -0.026949
0.179359 0.019644 -0.031048
0.176229 0.003870 -0.027450
0.162790 0.020151 -0.037919
0.173418 -0.011965 -0.024143
0.174156 -0.028465 -0.024104
0.158099 -0.011692 -0.032165
0.158147 -0.028062 -0.031490
0.160941 0.085945 -0.039094
0.261912 -0.063195 0.019504
0.253045 -0.044765 0.030384
0.267899 -0.095891 0.025213
0.264878 -0.087267 0.027638
0.262472 -0.078694 0.027930
0.241387 -0.058588 0.044811
0.228893 -0.040329 0.051783
0.228538 -0.056406 0.054677
0.244228 -0.090575 0.054423
0.230057 -0.071905 0.059490
-0.007467 1.183492 -0.329483
0.209901 -0.051710 0.082017
0.210285 -0.035915 0.076733
0.218213 -0.038045 0.063986
0.209321 -0.028327 0.076617
0.201632 -0.033251 0.093543
-0.028260 1.171580 -0.304981
0.200392 -0.066072 -0.046893
0.192673 -0.047622 -0.034656
0.189083 -0.056617 -0.036722
-0.147820 0.077930 0.103748
0.181618 -0.080267 -0.040013
0.178439 -0.043189 -0.028454
0.165558 -0.062657 -0.036636
0.160745 -0.044911 -0.033161
-0.017856 1.169283 -0.317483
0.166701 -0.078752 -0.037203
-0.121284 0.060164 0.110435
0.002926 1.149955 -0.317823
-0.002952 1.167199 -0.325134
-0.122115 0.043680 0.114090
0.021258 1.149495 -0.319487
-0.119641 0.537979 -0.020795
0.017098 1.179800 -0.332142
0.013379 1.197304 -0.337802
-0.026280 1.230326 -0.339090
-0.031384 1.265007 -0.351713
-0.019758 1.232091 -0.344066
0.006952 1.229121 -0.351278
-0.016565 1.262919 -0.359456
0.002894 1.244990 -0.358925
-0.060729 1.351981 -0.331199
-0.072070 1.398910 -0.348265
-0.070049 1.396935 -0.371720
-0.068488 1.385888 -0.327820
-0.072335 1.401712 -0.325686
-0.049792 1.300571 -0.341425
-0.046334 1.299210 -0.350660
-0.042698 1.283858 -0.346849
-0.036264 1.296898 -0.363522
-0.033251 1.279180 -0.356633
-0.052713 1.330623 -0.362563
-0.026954 1.279924 -0.361717
-0.035090 1.326285 -0.392517
-0.059964 1.377346 -0.380160
-0.048952 1.359813 -0.389383
-0.050726 1.392577 -0.398756
-0.037753 1.342713 -0.398762
-0.025592 1.356348 -0.410154
-0.037086 1.374373 -0.404496
-0.055198 1.346973 -0.370036
-0.060303 1.339039 -0.301134
-0.048781 1.286264 -0.322563
-0.053176 1.304112 -0.313615
-0.054716 1.306943 -0.290588
-0.056037 1.316976 -0.315124
-0.060044 1.337820 -0.311318
0.145599 0.348008 -0.058597
0.145438 0.331676 -0.057729
0.136002 0.330425 -0.074728
0.144705 0.299090 -0.055618
0.138340 0.298076 -0.068534
0.130780 0.329223 -0.088471
0.131638 0.345883 -0.086069
0.124087 0.327877 -0.104428
0.131035 0.296452 -0.087269
0.123678 0.311592 -0.103334
0.123104 0.295338 -0.102085
0.138507 0.266126 -0.060414
0.137523 0.281937 -0.066473
0.142805 0.234001 -0.050994
0.142678 0.243663 -0.051300
0.141499 0.250265 -0.053421
0.135243 0.232817 -0.066151
0.143742 0.282910 -0.054013
0.129318 0.247689 -0.083533
0.120901 0.246484 -0.099451
-0.032796 1.456144 0.013840
0.119477 0.342677 -0.121537
0.110400 0.341604 -0.136783
0.108673 0.325566 -0.134475
-0.029042 1.474403 0.031782
-0.024816 1.457503 0.028813
-0.136101 0.015037 0.129657
0.099828 0.340985 -0.149172
0.088678 0.340476 -0.161028
0.096198 0.292582 -0.143675
0.088253 0.307832 -0.159198
0.113378 0.261838 -0.113814
0.114591 0.278219 -0.113553
0.104222 0.260954 -0.127504
-0.018971 1.458754 0.045349
0.103734 0.244684 -0.126337
0.085425 0.259278 -0.154440
0.095373 0.243652 -0.140760
0.095155 0.227331 -0.139840
0.084997 0.226635 -0.152608
0.145532 0.200765 -0.052064
0.135125 0.216478 -0.065322
0.135468 0.200052 -0.064919
0.136641 0.183471 -0.065280
0.123758 0.198394 -0.086910
0.119713 0.197805 -0.094654
0.121072 0.214238 -0.093844
0.128119 0.166106 -0.078835
0.127819 0.182551 -0.079266
0.118490 0.165311 -0.092090
0.148321 0.151158 -0.052473
0.147840 0.134886 -0.051312
0.138056 0.150482 -0.065143
0.148103 0.102114 -0.050115
0.138753 0.101266 -0.063627
0.127810 0.149803 -0.077831
0.117340 0.149166 -0.090312
0.127386 0.117159 -0.076003
0.115998 0.116694 -0.087640
0.115004 0.100519 -0.086007
0.091857 0.113756 -0.128910
0.080171 0.113322 -0.140486
0.090963 0.097646 -0.126658
0.111612 0.213085 -0.110033
0.102541 0.195823 -0.123082
0.108670 0.164553 -0.105169
0.094598 0.211074 -0.138607
0.094220 0.178422 -0.136822
0.093409 0.162213 -0.135357
0.081941 0.161762 -0.146920
0.107431 0.148423 -0.103310
0.107009 0.132141 -0.102202
0.099584 0.147294 -0.118205
0.099488 0.130950 -0.117398
0.097898 0.098526 -0.114497
0.092300 0.146059 -0.133618
0.079313 0.129533 -0.143065
0.076549 0.097328 -0.139083
0.057994 0.341030 -0.177027
-0.145748 0.030937 0.115979
0.058193 0.324631 -0.176490
0.060848 0.308176 -0.174771
0.059478 0.292063 -0.172864
0.040277 0.342113 -0.179781
0.037540 0.309792 -0.176774
0.017194 0.343647 -0.182315
-0.077977 1.595515 0.049654
0.017661 0.295315 -0.173448
0.073587 0.275259 -0.166381
0.071860 0.259222 -0.164075
0.061715 0.275761 -0.170129
0.060599 0.243587 -0.164779
0.050472 0.227910 -0.165072
0.034943 0.277551 -0.172983
0.032494 0.245293 -0.169250
0.031213 0.229117 -0.167821
-0.051790 1.594238 0.069859
0.016484 0.279198 -0.171439
0.014406 0.263039 -0.170403
0.004229 0.280469 -0.168914
0.004866 0.263987 -0.168782
0.012202 0.246874 -0.169501
0.007685 0.230973 -0.167919
0.069129 0.210649 -0.159405
0.053145 0.211460 -0.163304
0.051770 0.195303 -0.161776
-0.147803 0.061871 0.107041
0.065760 0.162197 -0.154148
0.050443 0.179193 -0.159815
0.052509 0.162900 -0.157116
0.025991 0.164687 -0.159833
0.009674 0.198572 -0.162396
0.001769 0.215484 -0.163776
-0.158193 1.737940 0.096804
0.063482 0.146263 -0.151334
0.044277 0.147264 -0.155779
0.059748 0.114241 -0.146459
0.052130 0.114700 -0.147697
0.023599 0.132314 -0.157025
0.021131 0.100000 -0.153781
0.000762 0.133724 -0.160458
-0.141984 1.791455 0.121768
0.003304 0.117027 -0.160874
0.004482 0.100445 -0.161237
-0.494012 2.173699 0.489597
-0.052299 1.291235 -0.282684
-0.122514 0.566917 -0.041413
-0.052034 1.308798 -0.273020
0.071679 0.823651 0.020285
-0.060329 1.356837 -0.289661
-0.110076 1.771032 0.114163
-0.673629 2.838310 0.425856
-0.060980 1.389911 -0.288557
-0.114111 1.787476 0.119215
-0.053031 1.358069 -0.274260
-0.052715 1.390734 -0.275990
-0.146710 1.807354 0.126373
-0.051659 1.406897 -0.277680
-0.169779 -0.036426 0.095445
-0.170321 -0.035560 0.102438
-0.491064 2.165729 0.563633
-0.472016 2.161468 0.540278
-0.124001 0.552533 -0.039822
-0.097751 1.533198 0.227227
-0.217782 1.928063 -0.301116
-0.722008 2.847177 0.468572
-0.726395 2.851184 0.462986
-0.202996 1.890183 -0.325874
-0.198302 1.874512 -0.317575
-0.205314 1.922471 -0.335465
-0.213087 1.924617 -0.319588
-0.071384 1.515098 0.209306
-0.086711 1.504005 0.216823
-0.174069 -0.041948 0.099668
-0.038546 1.572527 0.160453
-0.038593 1.556464 0.163677
-0.192919 1.875918 -0.300538
-0.183019 1.859007 -0.297801
-0.175936 1.871890 -0.291732
-0.207674 1.921849 -0.288861
-0.203046 1.910541 -0.292659
-0.197713 1.893581 -0.296865
-0.134200 1.822858 0.126809
-0.164389 1.885698 -0.282994
-0.166220 1.892472 -0.281592
-0.157448 1.909790 -0.268268
-0.177925 1.927392 -0.272263
-0.173934 1.917222 -0.275520
-0.161964 1.927609 -0.265543
-0.144645 1.909006 -0.266288
-0.137935 1.926806 -0.265458
-0.128322 1.599408 -0.370576
-0.124640 1.583752 -0.373306
-0.157601 1.665146 -0.390745
-0.153668 1.648411 -0.393487
-0.145656 1.645732 -0.407911
-0.146087 1.661772 -0.411650
-0.147014 1.668363 -0.356256
-0.140299 1.615416 -0.382391
-0.138407 1.634025 -0.362737
-0.133804 1.618235 -0.366315
-0.150962 1.650140 -0.374019
-0.032011 1.520693 0.143644
-0.033031 1.537474 0.145809
-0.109514 1.529438 -0.393460
-0.087962 1.492758 -0.411108
-0.098450 1.511112 -0.401974
-0.099911 1.527103 -0.406824
-0.036007 1.505615 0.152582
-0.075784 1.474484 -0.418422
-0.065854 1.472164 -0.431434
-0.069293 1.457439 -0.419130
-0.067734 1.488137 -0.436735
-0.082304 1.521940 -0.432386
-0.071839 1.520064 -0.447709
-0.068738 1.504175 -0.443789
-0.054695 1.469904 -0.443121
0.152019 0.051505 -0.049984
0.151540 0.036023 -0.050402
0.139327 0.035445 -0.060949
0.136664 0.003487 -0.057405
0.146965 -0.012204 -0.044035
0.135955 -0.012740 -0.056020
0.122702 -0.026038 -0.066754
0.149930 0.069048 -0.050358
0.138320 0.068624 -0.061791
0.113493 0.068079 -0.083179
0.126640 0.035491 -0.071721
0.125255 0.019389 -0.069729
-0.045857 1.453041 -0.440691
-0.036605 1.466210 -0.450549
0.101280 0.067770 -0.094057
0.096130 0.082496 -0.112151
0.101226 0.051418 -0.093288
0.085346 0.065556 -0.123624
0.070462 0.065747 -0.132045
0.083572 0.049527 -0.121273
0.100232 0.002520 -0.090216
0.091121 0.017989 -0.104666
0.090597 0.001726 -0.103465
0.100592 -0.013910 -0.089828
0.099817 -0.030125 -0.088396
0.079213 0.017622 -0.115826
0.077103 0.001656 -0.113165
0.061633 0.001957 -0.121046
0.074962 -0.014304 -0.110477
0.074443 -0.030568 -0.109280
-0.041712 1.483790 -0.456119
0.149961 -0.061851 -0.044634
0.136230 -0.045515 -0.054836
0.138608 -0.062323 -0.056304
-0.060516 1.517810 -0.459221
-0.057686 1.501509 -0.454157
0.124075 -0.045836 -0.065766
0.127056 -0.062757 -0.067789
-0.043787 1.499752 -0.461631
-0.076953 1.644981 -0.507701
-0.068733 1.635210 -0.516375
-0.121462 1.565398 -0.375449
0.099157 -0.049321 -0.086940
0.087636 -0.063165 -0.097866
-0.116552 1.539402 -0.378865
0.076751 -0.063724 -0.109966
0.076957 -0.053965 -0.110585
0.075783 -0.068739 -0.108847
-0.029074 0.025649 -0.120687
-0.021084 0.039191 -0.135019
-0.125045 1.571355 -0.394614
-0.120230 1.593174 -0.418109
0.072666 0.855819 0.014796
0.076564 -0.047328 -0.110513
0.065303 -0.047816 -0.122266
0.072468 -0.079281 -0.105305
0.062465 -0.080007 -0.118217
-0.102668 1.549721 -0.414434
-0.093780 1.556726 -0.430480
-0.107810 1.590972 -0.428438
-0.095097 1.572724 -0.435175
-0.134370 1.627415 -0.416184
-0.132454 1.611680 -0.411483
-0.121619 1.606745 -0.422387
-0.135436 1.643425 -0.420610
-0.136188 1.659451 -0.424696
-0.124021 1.641176 -0.432020
-0.110160 1.622982 -0.437522
-0.102132 1.652695 -0.459134
-0.086256 1.587289 -0.453423
-0.065819 1.565741 -0.474761
-0.064886 1.557547 -0.472076
-0.051615 1.562993 -0.484839
-0.056221 1.579467 -0.491405
-0.082894 1.538391 -0.439186
-0.073645 1.536039 -0.452931
-0.085777 1.570376 -0.448844
-0.064110 1.549762 -0.469644
-0.087079 1.602435 -0.456799
-0.088492 1.618429 -0.461596
-0.085231 1.647916 -0.488344
-0.083569 1.628846 -0.480835
-0.090786 1.634382 -0.467343
-0.072081 1.599440 -0.488442
-0.064827 1.611181 -0.507228
-0.535282 2.212800 0.558153
-0.102222 1.583953 -0.348601
-0.083093 1.568605 -0.322294
-0.091711 1.570508 -0.334462
-0.082673 1.562131 -0.322398
-0.094109 1.584433 -0.334992
-0.096243 1.601195 -0.333747
-0.121029 1.660341 -0.335566
-0.127179 1.634519 -0.350953
-0.122828 1.618660 -0.354293
0.053656 0.082616 -0.139798
0.052216 0.066447 -0.138411
0.034836 0.083590 -0.144217
0.035335 0.067135 -0.143957
0.021858 0.050701 -0.152952
0.006089 0.051211 -0.159255
0.008212 0.035106 -0.154922
0.005326 0.083925 -0.161295
-0.001412 0.036104 -0.152939
0.048596 0.001802 -0.131167
0.035164 -0.014521 -0.139180
0.021384 0.018067 -0.151079
0.010927 -0.026245 -0.139274
-0.018989 0.007276 -0.130256
-0.022601 -0.011362 -0.130380
