ply
format ascii 1.0
comment VCGLIB generated
element vertex 833
property float x
property float y
property float z
element face 0
property list uchar int vertex_indices
end_header
-0.42262953780116236 3.592443057642239 0.017798964080824875
-0.340289683613332 3.749265657003342 -0.01988972385010021
-0.4790964347370779 3.9197070600154387 0.05418712414169389
-0.4973105324785829 3.7553389735623974 0.04715066546228955
-0.5357626276147012 3.9283596981821916 0.04204873786472889
-0.36606442505606496 3.893411512981666 0.0672487776840696
-0.6078341522964175 4.212321130840101 0.0894484121884788
-0.5796605166776763 4.171283685877826 0.16150925244081776
-0.5929283279557405 4.171255032913269 0.2528995588465508
-0.3681644481171607 4.158683245893395 0.032022912704729206
-0.6255914406471283 4.361660408817333 -0.04909492588635471
-0.5701186269458987 4.472965976771906 0.1387583299620655
-0.7136261886474048 4.387214661034857 0.1874528297267825
-0.633052060758375 4.4357008978649235 0.23226567240761148
-0.292989213337439 4.401536189444318 0.06688788328974085
-0.5728702316617466 4.575640984584896 0.08805566084795732
-0.6646853164338173 4.733544448624116 0.037039468214888474
-0.6429860475903261 4.79615163877892 0.0937206079309742
-0.6158603601206414 4.6589728259763685 0.12247368612567071
-0.6437792953202437 4.785346156063008 0.1982423465708864
-0.7490303419145783 4.652730525614718 0.28922581268335423
-0.6463548528147004 4.663540352058657 0.1338123866125414
-0.5817102585879064 4.622572503649424 0.17621168249512792
-0.6879722428863406 5.044009166968058 0.03783088613395513
-0.6771323862566024 5.089768607397193 0.0786570332739493
-0.7614282882224286 5.047004202853104 0.2052896685504616
-0.8360839433281889 4.940470894166874 0.373940549002706
-0.6212411090993617 5.128699047427574 0.31049996787775863
-0.6613150352039512 5.080751055878248 0.12621961085571856
-0.5407865460785357 5.069631683407729 0.10415554187352424
-0.7732983705322118 5.25186926433646 0.24318732059331336
-0.7843716519752066 5.225819530843183 0.15145305385250007
-0.920575445159849 5.275835704818146 0.2608672310701892
-0.7551142956189113 5.300248506149788 0.3958278787171289
-0.7696804398530639 5.359784083854467 0.14451431142896493
-0.6885348660707659 5.368665329150255 0.2791242682708706
-0.6284098089248701 5.344076087814023 0.3262172138498423
-0.7509072875686607 5.357477160769514 0.23323227819636708
-0.6433110575947666 5.394773919620765 0.07844034981905623
-0.6007547891092304 5.265131731618529 0.14531596650634127
-0.7963445395840575 5.570675847847917 0.2136928265528298
-0.9708778330390063 5.648923076351143 0.1544359379120775
-0.8807188919863841 5.4557087720560995 0.35949378150050093
-1.0062605687912558 5.596564470950422 0.34941971428077334
-0.7545056976276977 5.67411367323808 0.12921421133624642
-0.859160608632805 5.66075962340408 0.24796923660746645
-0.8909097262588452 5.905132571694526 0.22844001305217637
-0.9472753098112703 6.043228622228154 0.15923793804594066
-1.0536745126740608 5.957482651871645 0.2413857701737515
-1.0145606490749919 5.831802089896931 0.317422789269462
-0.9471212986645897 5.915049297057368 0.3807263102671698
-0.8344366302924588 5.898573061379108 0.3387189215114569
-0.7806643232112904 5.762831802431773 0.23292688348649748
-0.836408354083587 5.9563919315649 0.25611273409985474
-0.8635158282423929 6.021540036868272 0.2300230425398492
-1.1823411429665742 6.684627688097948 0.2757753393684035
-1.1763655681672884 6.705740913348267 0.4123620579713664
-1.1513632423699378 6.598638924669645 0.30630552918427534
-1.1703339162896458 6.669154479288913 0.3344565983112926
-1.0721992779638254 6.687503064597745 0.2502840561866671
-1.1394073101080369 6.7491757396158105 0.34811091157938767
-1.1410873643070234 6.500064390985562 0.4076423140444662
-1.0557336344704709 6.729589016916545 0.32699448918962665
-1.1235721711239435 6.73223496393004 0.2932672007234185
-1.3225228647145164 7.029196968052393 0.2253730873030026
-1.2624040123573863 6.8802260169008855 0.31028467198758614
-1.2789898155960346 6.874932022230172 0.41964992416144276
-1.310323196856597 6.876992083918992 0.38069744141850886
-1.4542602846630643 7.691473495429393 0.4943421380912911
-1.4605251075137686 7.690079100737308 0.4422080342151188
-1.500756388662681 7.710007040029085 0.4570408652817989
-1.5275275622914166 7.724771045542544 0.44205371545212435
-1.5132620623356319 7.7660047278468225 0.4269611547306642
-1.5076859223070789 7.779564610584363 0.42451489762230044
-1.51196226809725 7.754353339726722 0.47068240289835483
-1.4244108462426626 7.635614347507751 0.41858203225255974
-1.4771832685825674 7.781910646100399 0.3246895107895587
-1.496251630678437 7.776704111728694 0.4199420304613277
-1.4592174574025507 7.7572043918048115 0.4060091758140077
-1.5423955011439434 7.893143609603445 0.4033378324273428
-1.5912718860174715 7.996934497187262 0.5179329716180501
-1.4660512766993015 7.886860626353041 0.40549731574296605
-1.534354065835828 8.012931137417047 0.5119324568916905
-1.607212648833629 7.949160878511021 0.28292989633703647
-1.5780534368834356 8.088634787180075 0.44712076188756655
-1.5703487767900124 8.0724638667841 0.4477658891520602
-0.2554274363928005 1.3298334806311092 -0.15513170525292058
-0.21948143717279922 1.4000919863975707 -0.008450444311017088
-0.1859435632066861 1.452990507433745 -0.01070025869858101
-0.11098723058088045 1.3933061371889448 0.18026118765636162
-0.11408186935188358 1.419186882963001 0.10543216010734242
0.12216935825740509 1.2719791590616725 0.24276689947002417
0.12127579004424484 1.3215792908470134 0.25618252578193496
0.05008238897762651 1.4023845831199062 3.966491474641366E-4
0.0448538980180777 1.261955989948792 -0.09895020313011349
0.05158070047584588 1.627704872093431 -0.09988684485703535
-0.08952321630853535 1.7180921526486301 -0.025678258715616683
0.10195412746501954 1.6737550108333292 0.06674564625662101
0.14503531829000216 1.7157842128200127 0.08879289199137946
0.18837960430358955 1.7008771920165004 -0.18796982845224114
0.23670257101990194 1.6209840585953645 -0.15800870739063497
0.1406660273656158 1.9199251667772317 -0.19296651566493161
-0.003355689965477082 1.8578931591010233 0.022577348442915143
-0.029789575012570693 1.8798273207884624 0.141693165444249
0.311230675359706 1.911284435634052 0.2275813777524095
0.140350885512004 2.3232107080375908 -0.1475126063676172
0.18730601335885588 2.242237906333393 -0.05184157090767835
0.07643598596198377 2.2493134914140525 0.12913288151984834
0.3469227527058282 2.176996075343013 0.2006938770702915
0.24423984728864223 2.3122032443926352 0.042300601954103935
0.1970686579675967 2.6376052230694094 0.015147078521223545
0.09105292911260428 2.4770060869426866 0.029330319749829574
0.3344788964087924 2.582232125861002 0.220310475942264
0.34859785351746025 2.5593675443354647 -0.031069027646471587
0.351664979653901 2.516116843215102 0.028564855745106386
0.04668513001534808 2.7655648711712653 0.13990451951436988
0.21019772385421082 2.9015601113492493 0.07559113294988948
0.07221492241550165 2.8175790471842483 0.3752493311958769
0.1616780689437533 2.866203571091982 0.27433564000826466
0.2658063247915591 2.7781290341872262 0.31557298516367926
0.3516637737962152 2.7338832481549367 0.281231074655043
0.3973503212040093 2.809743407644419 0.16309690129812932
0.2949303881155772 2.8461299861035676 0.1970389083692647
0.46052944409969887 2.8731563834256497 -0.006733900421995481
0.47107086361390105 2.8924207527242087 0.10275185574993681
0.2825573803009692 3.1627193993865017 -0.012782549527252399
0.34656631102772906 3.170825173444081 0.10334496506609205
0.1774336645265317 3.0838537032634727 0.2677399976333767
0.21408454458590648 3.1380644534446076 0.3001355478094979
0.2490777903392331 2.953608965899677 0.2602352793794581
0.3131793565962282 2.9974322975263545 0.39125370141882415
0.36520694431609463 3.0685510530531026 0.3378330152541502
0.4295984261688821 3.099656733398341 0.20645421376034437
0.35718466151813355 3.3748977911612585 0.06184395071207105
0.3438440678524174 3.2896315991172065 0.16408438488213412
0.11891230242526243 3.228223291695755 0.3119459248442656
0.26936309241446277 3.382736109045221 0.3219181895294845
0.3885570914012092 3.3378191076118724 0.3732576826147632
0.37747002610870284 3.3017107459553174 0.3240230996150111
0.46883297761779635 3.3668532269214366 0.3389947356703852
0.43845418428640937 3.608713318043354 0.13122778052375783
0.4076441742051943 3.617529897147594 0.31371204750963294
0.47980553533838366 3.694925888719184 0.22112115124406936
0.18060373391661477 3.820716565695258 0.14401377187574116
0.27901911379830857 3.6162753945049673 0.16803988101263584
0.4238664783737803 3.732604042317868 0.3666412659099014
0.504555014808852 3.6114454203048934 0.17293914006008657
0.37180114624879435 3.97978417398604 0.20278652823506638
0.3243814557874387 3.868148057526481 0.3819144108728341
0.7362123830294773 3.850280431192493 0.3011367390036799
0.5624131008636961 3.8924801932819055 0.36979733151932814
0.42827624768645584 3.8459197607720053 0.395313546448246
0.5743490919796224 4.007556627801495 0.25165970615136307
0.3903378685382744 4.253809012932427 0.44107850661417397
0.34828237703502846 4.192752844935499 0.35806030264605765
0.20976992198643893 4.16903677143834 0.48529733471740016
0.30981944764482017 4.261370552991878 0.4779630760678023
0.3786925445752541 4.223702790980751 0.5685217310773988
0.4773214959149511 4.1475357067673055 0.7066557797294195
0.6199771182668005 4.2249242803018445 0.4177347398195062
0.509497936256972 4.22725475713193 0.48447296027708886
0.5451688299660503 4.148261872267607 0.4191332101104211
0.5176415353047019 4.535418564383419 0.47477650799301757
0.5168655816260084 4.347542436318684 0.4254937331481943
0.3576202501977215 4.506406647921692 0.30486536983789836
0.49386083248914225 4.549100211715698 0.4708406156515509
0.40927077001251494 4.5316015422647755 0.5633113588491193
0.5159810627152053 4.358608113192731 0.5602403165374132
0.5699678883180335 4.376026618365917 0.4801114786848253
0.5713848725389218 4.285268312867456 0.4896752542432446
0.6676499106441518 4.4825498880331045 0.44869131779972027
0.5220347965328074 4.683005396188916 0.5028172138557079
0.3607397159282717 4.568052482265506 0.6643766182119554
0.3480007645367093 4.729918493715389 0.6900755461332773
0.5482445443400155 4.778474421570812 0.6578952790951265
0.3382348363849446 4.691918997124594 0.7248148725341821
0.47958616169267315 4.572803976901111 0.590615579630891
0.5233994375351434 4.579041037948715 0.6671866771987542
0.641846659306393 4.627532920425629 0.5826643820935843
0.6988354294199175 4.663498762687221 0.6049845894915958
0.6988414459581972 4.764192175755777 0.49950602387286264
0.5692242475159355 4.973846712291809 0.5838181537618663
0.627084112474717 5.019288408073839 0.6263341058471019
0.54278747636324 5.034253954895247 0.7037849910704344
0.6555580420714565 5.022103272648973 0.7943340525574579
0.6124838621780615 4.923690861201176 0.6808372856865572
0.6979434879973935 5.028838539526164 0.5078580527786347
0.5699636773452561 5.195903041917486 0.4720403839581786
0.6303172726766264 5.314405454051933 0.6321972768966132
0.5013466843399808 5.207884598919205 0.638376406759026
0.4801334307964567 5.230747234240378 0.7614800207940431
0.5931970825948903 5.275694722950926 0.7191643550041203
0.5709292429822185 5.205806117082034 0.7826456866955948
0.6025794813910293 5.1347664831578586 0.8670836121841093
0.740448229786701 5.623190408767204 0.7790038183504435
0.6668060159207115 5.5324940501677276 0.849880114311726
0.6971255682595232 5.563514850187184 0.978914981374421
0.8394850012327043 5.5620173229475816 0.8451229028859756
0.6990152803365131 5.555217769710481 0.7291593781437926
0.7204812494019659 5.559571898584799 0.7659862441832337
0.8608983909905852 5.4180161712931785 0.7856612336424155
0.7359167739837045 5.870268577675355 0.7896804404605121
0.6850780748260965 5.8717677067279945 0.9483752005009063
0.6633511155659211 5.815865358194624 0.8032305454128965
0.8232728092905407 5.871336038292047 0.8053204601554635
0.7441801627579772 5.686696806755583 0.8195079370634718
0.8536982380194452 5.675612960785827 0.7584888504248544
1.0830346569306715 6.556560127537686 0.8633016401276715
1.0418661504030173 6.575144493708983 0.8629403186058062
1.0083603864132853 6.6319729282845845 1.0037820017603702
1.0710954686310445 6.516420840745364 1.0122174851469774
1.1842494302755857 6.609168884255802 0.9295275471388551
0.9915471051619289 6.58609150206352 1.09194002067261
1.0928093122795262 6.8771233711704065 0.9493657356879873
1.15793887075815 6.911143806573419 0.9906474024049765
1.0329019265380635 6.889063380034701 1.0543927006851013
1.0768322964618224 7.0091447772879105 1.092108332998344
1.1721075581538487 6.780961227742318 1.01760749693448
1.1408155468683585 6.834774643583281 1.0048061211850434
-0.21151690678115173 2.4697899669799814 0.03306478705188977
-0.22207959308030223 2.544128222705637 -0.13602554729063748
-0.2482306627383156 2.38320935090296 -0.24864672307072885
-0.3877318480853045 2.4589865102758215 -0.19123600405934088
-0.22582728274129524 2.7601575265053095 -0.08818347722146076
-0.20097528788300617 2.799172852205139 -0.13733266719042028
-0.29199250834465684 2.7823346454309283 -0.13730014265480986
-0.1516797758265286 2.671674787207357 -0.35321490958879753
-0.2013063500843364 2.8103318362399943 -0.26508180529319186
-0.2863836786572043 2.7297979185342705 -0.39621554016611477
-0.3399441560849605 2.7886970009724887 -0.28290300786096123
-0.42968466875132333 3.0156901045618163 -0.17564059854572583
-0.29237570253905387 3.1405454778833652 -0.22631896182821246
-0.1584059044172274 3.0070269254536077 -0.11358233492868032
-0.11190271197696744 3.076334505078819 -0.3029700857424112
-0.06360616478021404 3.183402804948262 -0.22297896847871912
-0.2511314736606336 3.0267306869145822 -0.38502806999648787
-0.3741560410232485 3.043160870388644 -0.4646157480899968
-0.446029967422951 2.995029360918284 -0.42099683049028647
-0.5226318880408345 3.0437570094237256 -0.24109997934801572
-0.4209682829625011 3.0564932378947565 -0.2982076931509357
-0.5714462233619579 3.2825930049813064 -0.18471698394620667
-0.2790222309811114 3.295291383423357 -0.26012725691784405
-0.3634620887520494 3.268783504085491 -0.3574928425392038
-0.44949705285668073 3.361910947797973 -0.41040860043161775
-0.5090231556891741 3.269566218373602 -0.25270609799189697
-0.47545218731701394 3.276381845653224 -0.2863926410542845
-0.35192397097393513 3.6204973113811802 -0.33705559561802406
-0.37221037599891416 3.6062865378497566 -0.5786333039717361
-0.38531912609208796 3.5358590405758292 -0.4227988926847953
-0.5021105036965602 3.8826689413588644 -0.3560237732504858
-0.3412537232592467 3.846084780411431 -0.453816398428365
-0.3416462364331779 3.926861440946849 -0.44599494423959607
-0.3235090461803905 3.906465456027762 -0.4123454574643118
-0.4637558096677857 3.837436769884862 -0.5473241126259993
-0.5779524885865148 3.924428308317903 -0.5239519722263442
-0.5167055913381604 4.164297476804006 -0.3676680254766335
-0.47263558768226294 4.1538964426065705 -0.5857924648376652
-0.245017626895907 4.239950738150891 -0.3205455952436607
-0.29281700468894656 4.027956857840741 -0.5728651149459276
-0.5432165077142077 4.215740029823465 -0.7399927675723624
-0.35742162413037537 4.1631075557637125 -0.7499244091126865
-0.41059413326114497 4.382881664952207 -0.45297523454072797
-0.35115265831434544 4.485240103098486 -0.592925275450991
-0.4743550373092619 4.40904797705359 -0.6150340855524083
-0.6630888851798026 4.418959431405083 -0.732880836699846
-0.5808188473067755 4.425068521428894 -0.7365691122154097
-0.6793563796819829 4.677469472948171 -0.5932421624528669
-0.4996589407954437 4.6669002012784935 -0.6245200778782655
-0.44898343929994455 4.663512788464557 -0.4881044786365619
-0.4804497353441672 4.657058076237582 -0.6620594446426004
-0.5670687593492694 4.9599087724406905 -0.7115713850234636
-0.5720968680464062 4.987598590150742 -0.7645003814784193
-0.645569664048188 4.934704147683295 -0.7713831449468308
-0.7197705709034137 5.437881627246944 -0.896359279526012
-0.7722855115874236 5.528598262566383 -0.8324295619075802
-0.6954727343387634 5.545842078746159 -0.7795396641039827
-0.7010411241791772 5.523367291635655 -0.8688554868098627
-0.7640262902551903 5.510134914511002 -1.0070642270009502
-0.7653084487194871 5.546845701215924 -0.8530434801948662
-0.7068934365617577 5.552069855523533 -0.8403922414914494
-0.7438256222312355 5.330822796463792 -0.8656567001792548
-0.809228530979738 5.456155489320313 -0.8376525090743095
-0.927716309508167 5.437753147231628 -0.8505643977847532
-0.8775288271317996 5.6874882144555885 -0.7973462880520945
-0.8879948291484465 5.8542539216500185 -0.7409629081912024
-0.7017527184178519 5.77165413867383 -0.8197309098956799
-0.765468960779802 5.7869788361409205 -0.8242790134503561
-0.8571006233152494 5.732327491124581 -0.9665526973363621
-0.9297252572183443 5.70570686684762 -0.903353122040724
-1.0595151546206771 6.549580069929434 -0.9914080150879487
-1.029502699183761 6.490036705964653 -0.9902509767814328
-0.94241852735126 6.544114150003283 -1.1066814600125279
-1.1201145925270055 6.56111287270549 -1.0153599606575063
-1.0983509897172048 6.424483136048301 -1.0946532817481383
-1.098340815497898 6.4933797355226535 -1.0619143023674273
-1.1692955410312273 6.696573995654807 -1.0212393557318884
-1.080742435035289 6.723878510640959 -0.9635048007099798
-1.1019626638009064 6.784575110872703 -1.2131724187494255
-1.0903945737851273 6.752831789254122 -1.1369123607770302
-1.1351419657550217 6.769583624184252 -1.1650811613561032
-1.5208703842813038 7.516690523565118 -1.3200617933253551
-1.3623565777073736 7.51321685260034 -1.3730199530145315
-1.3728959288869647 7.533173515280784 -1.3900583005490137
-1.1944525353069697 7.39536070619811 -1.2426783437318318
-1.299838114746775 7.362093946134644 -1.523852609872438
-1.2332944684924503 7.496867083854419 -1.364951096482962
-1.3172306547771713 7.474635761828271 -1.432117348309581
-1.3219373002673465 7.569524909563083 -1.4578714515338596
0.1379017297164848 2.56995642814622 0.18563564105054245
0.21682951073524595 2.5024572519825 0.16775676438705625
0.1741928318961046 2.54465353384819 0.22880379975917298
0.14987115072426999 2.412442980228664 0.241262728411332
0.2999961667338803 2.591638894782475 0.23258403758523413
0.3195016514659256 2.5482453069855353 0.0703228188819276
0.33684986086529267 2.4422404193021383 -0.10057573744245166
0.18505593356427769 2.556718654581802 -0.07577478204262622
0.12027795525505794 2.8373623780115103 0.0620135117666489
0.13972172714962175 2.8734933859973144 0.0399670821004595
0.08542584886206737 2.85917258624122 0.16955513184846432
0.27170687383633707 2.8784807526264693 0.22075387220334367
0.19190863045240988 2.70407191701814 0.2133818194874556
0.33208296797125336 2.7928514300413245 0.15716793969227816
0.42840597274089404 2.7398774144954197 0.16400007769350988
0.4028848280456937 2.7184962918669746 0.07753025153777182
0.2182492742109943 2.680806465885532 -0.024068463320991704
0.0755884468522188 3.0518617700705972 -0.008398806071589715
0.26804056848895336 3.121500220034127 -0.02249728794867846
0.21804018108054557 3.106239375799696 0.05038399356722942
0.16286059646057086 3.092398809347572 0.13319944983511792
0.3787094968937515 3.1047304875749338 0.14423405313563295
0.41442745602110503 3.0530059248205554 0.09878939833145091
0.390246990763418 3.1021873142143273 -0.010591640493754018
0.26723416411481665 3.4496464534950166 -0.18701060086654422
0.29054280810538874 3.221017145892427 -0.16979441813773158
0.3109396344338602 3.2160572108875085 0.26968773336424645
0.35810530290004344 3.4098957024783885 0.19113073573701972
0.48422660258066913 3.358309528718377 0.20844781618835906
0.4126565459608548 3.430919584406049 0.0433438419702975
0.37119443872051266 3.3456341656299626 -0.0504886290153169
0.3938384341685267 3.419825603867877 -0.1834204643813928
0.508269717887158 3.6003222817292437 0.004932415980799625
0.17381261110645252 3.7384975003984886 0.09787923213412103
0.3789943631101058 3.558932801103956 0.09673721686719362
0.4753733834236454 3.6521906219638502 -0.065915517896628
0.39349431786849504 3.729329897174497 -0.20441772051229867
0.2479052425981037 4.001091999215561 0.14373096991970072
0.45712097971502147 3.96723216116009 0.007548854459230907
0.5337145879702634 3.8911237735668998 0.007757499561337542
0.48505510822320397 3.882747855072607 0.012244269660167811
0.4472884674041732 3.922962898315811 -0.11752477140113243
0.5193279865278988 4.239365293869579 0.010016577360436915
0.41147125410911967 4.170172656642615 -0.022077084023214615
0.5146140186038105 4.224100010458971 -0.03551726238667328
0.32773983793288075 4.103854342923176 0.03951982546050501
0.44791757119521913 4.182835316760278 0.08749099980968376
0.4145589008262147 4.150633922324709 0.16398814150770175
0.6395386047964052 4.232687586090262 -0.01653640197389343
0.44478566182058393 4.067818283661968 -0.09701785298570686
0.4816371571818029 4.23229689542414 0.013971651514904038
0.5259484723900968 4.266134593151096 -0.24971062217170747
0.48373904304768917 4.58395664676906 -0.0711213379774768
0.5036749197171173 4.562414292699103 0.027244307125380392
0.3253632635476299 4.453694132069484 0.022265434956898405
0.6299598070413779 4.5340429022182684 0.06103631012012926
0.599092860597294 4.423000924274892 -0.12455706720311195
0.5308750415040207 4.7661082590212205 -0.082099452986541
0.5006762016329419 4.755712103260027 0.12951383427117868
0.8651734198468902 4.79177439324394 0.0638257176948815
0.6078408896004371 4.750887651419485 -0.06849091410389627
0.7698374932270187 4.776421093158016 -0.033313582140922
0.7749833387609207 4.808114489798928 -0.08526843705076376
0.6288709531471576 4.584487585638276 -0.16849216855083335
0.639488102869568 5.00286633864414 -0.22846976995382115
0.6549530343323231 5.158559136601575 -0.11325717674330785
0.6789189560823977 4.977511022584664 -0.1257405485519079
0.6833308885371584 5.153058031970858 -0.04262330975011329
0.7089711909390063 5.1552581882185455 0.03276043519642422
0.7019699108943004 5.072629682349655 -0.006485457033428652
0.8007872159530602 5.117843481682801 0.0470921930817968
0.7768577032185124 5.036703089357181 0.00692210517021506
0.752415690433867 5.11939528384475 -0.1373039584581534
0.8034188856958875 5.3754660620801795 -0.19706084808237978
0.7190716241661299 5.2698197888534795 -0.08476926333628486
0.8026989454060319 5.252672825543559 -0.08715087983271741
0.9033320533283995 5.366556987704529 -0.027781248342616013
0.9514518887258537 5.34746003865953 -0.14685841793824744
0.9544215188188827 5.282356865641432 -0.19510635532096268
0.7869309358299652 5.21410671837426 -0.1423170933209023
0.9078068457982964 5.671242688593999 -0.20810857829545676
0.7326429729064001 5.606403473100125 -0.22399265650082179
0.8564757398231915 5.709678450904083 -0.07566727575371696
0.9560870236887979 5.563965390290456 -0.1370518665778905
0.9411028914689221 5.5424516462873425 -0.2759844113164424
0.884167132133332 5.465018051192938 -0.12617963706788743
0.9620234983088315 5.810861269190672 -0.14274836719406353
1.1153010610369058 5.774175982213482 -0.30668029266257313
0.9767442490421866 5.889492133367567 -0.34306109494600423
1.3246734499688926 6.6505278247754225 -0.15695362615169484
1.2358774013401959 6.675653841407017 -0.23703711002324518
1.2988378944457788 6.550180523292171 -0.2276252676118414
1.2719365576204273 6.497989911361161 -0.13873461090054617
1.3198144904441016 6.520160972193482 -0.22147396904153074
1.2763649594132387 6.543817961046073 -0.20371736175835087
1.2564407675578424 6.5038935780952265 -0.26918281348993245
1.3679624954112213 6.877573407889837 -0.2869016072579455
1.3797716018169661 6.92614468494912 -0.2830942148181109
1.365078519030961 6.888429913551523 -0.20470787193055304
1.282639424160257 6.7529245346438245 -0.27551941159896937
1.3966525765545506 6.931397153926182 -0.2179498075607643
1.4817437120107655 6.900845240004541 -0.23009895642709532
1.4933816653812464 6.944695311722748 -0.31491486225280607
1.4217893913643909 6.862496905418655 -0.37077059066345247
1.6923851972934556 7.56884894568397 -0.3197532854883107
-0.7876276018806713 4.698975209687614 -0.5432616763061171
-0.5284206752477597 4.707779097474852 -0.6272192014759147
-0.5320260513173426 4.763786839610718 -0.6864590191959405
-0.4936662801765481 4.6602622773900055 -0.7723076514690721
-0.5237300822893295 4.660211859889901 -0.6702378413289996
-0.5257245469238941 5.008886584790027 -0.7716884968092277
-0.45985603520655477 4.996894261117647 -0.785190993953649
-0.38224321547899887 4.919176875065649 -0.8535266973369093
-0.518329457452872 4.917272672482665 -0.9316995612923749
-0.5672525093210582 4.785261547617605 -0.9448566345285735
-0.589884259108652 4.958324951758126 -0.8143323032212362
-0.5160339488751238 5.2302322209297465 -0.8787819580003251
-0.5234746738233974 5.14269736150901 -0.6498266457612705
-0.5168490420035586 5.223371736144792 -0.8375219704818426
-0.4321395232077378 5.255712220473124 -0.9000470968937938
-0.5241454534321718 5.257319819697018 -1.0977278315789356
-0.6026893372741258 5.166461905363874 -0.915944935858837
-0.5314859505816494 5.217674555315039 -0.7839591330405846
-0.7526624195581545 5.1186128163444105 -0.8535560667513395
-0.7248655157164016 5.232944195869524 -0.9539046253614777
-0.5415603182841343 5.315500224131543 -0.8238094175269656
-0.46084647384493804 5.556603293533002 -0.68300036794458
-0.5089004231078431 5.4353409632451495 -0.8191781008255473
-0.4278849009596174 5.537011527027107 -1.0481274156926057
-0.5236441334644479 5.492391268852587 -0.9388858659712684
-0.651081201239013 5.503625816534105 -1.0870961901594218
-0.6594752432306754 5.474676410551814 -0.9612277332323514
-0.6200937462243907 5.803548854462296 -0.9835321118054372
-0.5809833725716338 5.747365141218845 -0.966341015665087
-0.5213154670306569 5.7467118492108815 -0.9635047829917545
-0.5310907452180841 5.6125645627694665 -0.988908595573393
-0.7003556923693115 5.711124203455507 -1.1038075711745947
-0.6254356458868044 6.615830992351703 -1.198976055760244
-0.6165497997719411 6.431549476608453 -1.2201633734593837
-0.6016785369000726 6.622492324106375 -1.1609442636080747
-0.5116187826497333 6.587998031838045 -1.1517775500205694
-0.4738262101042462 6.6567917396999725 -1.1171213509999263
-0.471646884896186 6.538554380530897 -1.2139008370210942
-0.5081904475530497 6.638146240573987 -1.234210832892612
-0.5278338833898237 6.540865005904595 -1.2388081849151353
-0.5707804505380122 6.582322753872823 -1.2170677172479871
-0.5745023801458045 6.609404998238517 -1.1458626957111897
-0.5476944019299115 6.578086006551495 -1.170197322797242
-0.6709126009262874 6.789913911547562 -1.1455896621401733
-0.669406445078766 6.841418442150837 -1.2101993120924721
-0.5742863917736593 6.8318786211969424 -1.196566264791344
-0.5089138683087683 6.888677033966223 -1.315023220034704
-0.48910723319564076 6.866429443051318 -1.1028559207186512
-0.6498991650460668 6.80035369103405 -1.2971717461542827
-0.5617348413046578 6.881332178758763 -1.290021181253044
-0.5546532069860004 6.766381853725279 -1.302159454968647
-0.5991809981042114 6.678782917490666 -1.2558573548267673
-0.5989074229107828 6.845378930558339 -1.3227815262591582
-0.5182165227972911 7.766222762974268 -1.4216923246709576
-0.4612645880662978 7.56531362334403 -1.3629025880764347
-0.5486341668333654 7.601002813988967 -1.4307338824573443
-0.6378048555664269 7.73578105633485 -1.3581804589040056
-0.5486407289151104 7.660689235689933 -1.448640322251292
-0.7059553381439216 7.943047995274233 -1.4688560975941116
-0.5132215218651907 8.057534423536206 -1.3475934610833376
-0.5522070629222953 7.8957741793825065 -1.4161555350054993
-0.6602358672208881 7.966109409899689 -1.5263799020934379
-0.5435337573685015 8.025284361512421 -1.4320514987516162
-0.6911103816016969 7.959725204348978 -1.4975672512736637
-0.5844229349024764 7.896941668084895 -1.4831862946264545
-0.6169103976593434 8.778709360603175 -1.4637675511554544
-0.5167800812479593 8.808275037763657 -1.5363825539284162
-0.405794592322968 8.835442002119123 -1.58875361246746
0.5104786085774362 4.842518283320934 -0.03297716114595297
0.5322940606302715 4.795545237785926 0.05272713514622376
0.5576121636427435 4.664732538604392 -0.006196754960879777
0.6288151307261439 4.8397219354173036 -0.056059946721502135
0.4517167261758081 4.645850004646239 -0.1306860506966221
0.5153247595374283 4.788575140149945 -0.1431266705328612
0.46625004657356145 5.0808660394887655 0.03419875158815674
0.5814740222124872 5.070495488132285 0.049687024104943085
0.5352417726092396 5.001336469355092 0.11909160714082867
0.6528852012626564 5.009178164071245 0.17396365468179997
0.6747371358845828 5.11483250154514 -0.10169895252011575
0.42891560791001354 5.0842804468543505 -0.20357605622872166
0.5348064276748001 5.2378410652103975 -0.06875143870198215
0.5924142494080334 5.407148800362196 0.1285526669115629
0.5670789317737851 5.386782184607922 -0.09675089395972059
0.6217934219641172 5.231655076620046 -0.13372245322273812
0.6305394878508562 5.366266278324699 -0.10055288083452166
0.6390885233945744 5.3338094417273005 -0.16318354864541748
0.5744360082215498 5.418922764698715 -0.311302503044364
0.5028582904021227 5.6048026135092455 -0.05362161172078722
0.5861676700833566 5.712658848895754 -0.06502960855171741
0.4772270964704368 5.5363811809697125 0.046344843194005225
0.5404189448499112 5.732210960877787 -0.022857950776980735
0.6139902142043354 5.689922654991173 0.1158559750100403
0.726320995076966 5.680262493075008 -0.026840334556977975
0.6777373737011495 5.462581153958187 -0.05265901557817573
0.6456338418072158 5.691587756739743 -0.19826519508065302
0.6279665611615783 5.512353100863387 -0.16279779810202194
0.5552309291639534 5.671080935010563 -0.13224444017865794
0.46445268873365525 5.986077067215955 0.019356385612265922
0.5654041258739048 5.9063496056116005 -0.01777002793240137
0.8172559228288325 5.912855362750786 -0.13628339503513257
0.8222486650928085 5.84394060324941 -0.06293146002606746
0.6121095339344254 6.007063339487059 -0.09811240351337636
0.6462211830397131 5.981062415481349 -0.07734687109189127
0.48240134143947466 6.016534603647517 -0.24714202515113332
0.500666067738595 6.19062904585829 -0.12070303803623647
0.5706049817612373 6.174074492612246 -0.09534760874652334
0.6208101347962016 6.158529997701337 -0.07890341377555699
0.7064356079656677 6.290385211170489 -0.03773733599718267
0.6887568514167856 6.205935189871165 -0.19598578093461194
0.6446641232428182 6.493478758867946 -0.12285237567963823
0.6559986273249813 6.572526102387359 -0.1900611063478863
0.5952207633265212 6.403854080252115 -0.15853142942081427
0.548487639600433 6.595032132407744 -0.19384630331305605
0.5295385593648954 6.486277181046934 -0.21589288061349904
0.5808005158482883 6.59203091998361 -0.15205687358214917
0.5210177081560552 6.906516970497258 -0.1164962349568827
0.6532243142745265 6.734877061652717 -0.11493835116805726
0.703342604874459 6.754566799026417 -0.013391839950797284
0.634831319110309 6.841501088057413 -0.07319063036946742
0.5668930638150423 6.792447518584847 -0.2104181085547027
0.6327546551283386 7.047411464180395 -0.09960643988467575
0.5658012002420071 6.93311327161795 0.02490920800843756
0.5081549992065217 7.128548204957363 -0.012294922030686176
0.7846239692864697 7.032188924984736 -0.2248390110766145
0.6271034106450082 7.088029397990102 -0.22413936603006987
0.615165593000438 7.0708700610785815 -0.10451647931512378
0.6371274963872843 7.2197828072656085 -0.0804258430163802
0.6458744994691796 8.048284759110166 0.022428155977478693
0.67814423762653 8.001404503348443 0.0351086702246655
0.7106964071682258 8.023783864941299 -0.008183975965179006
0.6704416820394058 7.984972960836977 -0.13936131039376934
0.7353117051407286 7.907337727737238 -0.04002134089201592
0.7388556258675766 7.831663417868806 -0.030993957300752203
0.5059071010240579 7.868504469913602 -0.019736612401180985
0.6699405814752915 8.043418009546478 0.017096995473809575
0.65416972192612 8.277731955633035 0.13750017412838472
0.6560637608087678 8.315916666664023 0.08709091844399984
0.6651915554368447 8.291150298199733 0.08215568916403848
0.743649106865765 8.247764782288437 0.02700758930792754
0.7462564556377891 8.14038572628012 0.0464240762595558
0.7430974357640654 8.370355823861225 -0.1125137699604222
0.7760910269774376 9.07911238677344 0.0222569270912695
0.7822081309393512 9.114078302467268 0.12853370282971485
0.7075849898129197 9.205302426215638 0.23282727140062956
0.7656786212837422 8.933652684820714 0.2762916539620772
0.7519805140403838 9.186813699875664 0.215240018767775
-0.8645106005317934 5.842816554800229 0.10317947723764777
-0.8484015757170139 5.847890740332898 0.264525634575015
-0.9079631361576501 5.920610941965962 0.262557772297956
-0.8535617599290243 5.86844311555041 0.4087324711905315
-0.9962813333094735 6.405477701818273 0.38327169385554155
-0.8740081468494129 6.39228244624661 0.2663903389641377
-0.9122303560639222 6.451060915546164 0.21320814475102062
-0.8293602304681194 6.4769699281923785 0.40245951887955284
-0.9882254668584654 6.546066337098758 0.37827694685294044
-0.9285990721486187 6.3670773180746565 0.32491844191144603
-0.9188240676618948 6.443757937999747 0.3510417960809114
-0.8775929934357863 6.461094844809172 0.49291015476629146
-0.8721339324989107 6.323647274253451 0.29913866659476834
-0.8578628001808646 6.461721067638567 0.41349707741373143
-0.8602471562009589 6.723499999972022 0.41911112751874147
-0.8579698445992122 6.708061196496375 0.285598347941372
-0.8786621865359774 6.795165011641689 0.34475853203562024
-1.0564798365523393 6.678089884616096 0.23087266222539338
-1.0088433796163412 6.758901314762948 0.34572576204238703
-1.0221716438816089 6.634250900558667 0.48101941627698047
-0.8639326031115312 6.684654567675887 0.461529262689153
-0.8827197169968436 7.17602086889174 0.3548918921154806
-0.9691656716572562 6.923507164092829 0.3752946557922575
-0.8983665020777112 6.818367073943055 0.3935620933302273
-0.9176449573672706 6.932450610188214 0.47361902669653805
-0.8827498568515698 6.928130275244798 0.4835433474722278
-0.8065127855701841 7.739248174125686 0.6488423321911789
-0.9066258120514282 7.704061177779081 0.645852941283724
-0.9783579446256329 7.679634693889012 0.6055595869070703
-1.020375443944907 7.7341164813267875 0.604084067051484
-0.9526015726729398 7.815274070287124 0.6744439318986571
-0.9529703335433247 8.063604816490065 0.7727237740798445
-1.01157087490065 8.1277996553517 0.764885247472036
-1.0252836760486876 8.104265177828504 0.730275270414496
-1.0590504987972034 8.138923024328957 0.7183892662598299
-1.0576865750959283 8.193361115992275 0.7528925800327082
-1.0775180047286237 8.140966187414595 0.7354753885163092
-0.9064397218187629 7.908138881168549 0.7396605869858438
-1.2235107755699368 8.800533474721217 0.93753577775389
-1.2036228803720357 8.885488870623643 0.993125370899394
-1.1878774332220117 8.955959539000986 0.9472666424805289
-1.0748808477631708 8.828509193944523 0.9105044445437139
-1.2958072209424054 8.871991193661852 0.9545910604757003
-1.21028544178816 8.916466566184244 0.9816603267183789
-1.3051744832216035 8.904408475445756 1.0775353578389144
-1.1808424586823514 8.840463825898457 0.9633418881237562
-1.2030270246965817 8.882924078203498 0.9288007733799252
0.7867344503806561 5.871093661199726 0.6355955268487324
0.6827607591869514 5.823779082573992 0.7202591129775281
0.738001009547968 5.813742764561103 0.8512819236364517
0.6180001406013015 5.72492565327861 0.7363200359962851
0.6305397845940546 5.796770340186627 0.8441137013479553
0.7066619560341615 5.769602389362317 0.8678697650647846
0.7660532554288391 5.779558334649629 0.8717187731649101
0.8648547200556705 5.697874849093122 0.8177333585032797
0.6976553409831331 5.751020685101274 0.9436953621055422
0.7885674336288206 6.286781228072698 0.926710926502066
0.8189734758196509 6.44357163372288 0.850564256886016
0.6128263597494876 6.306642683939812 0.8321391450775132
0.6172300059409715 6.402127709586321 0.9148560803806588
0.6680436329384624 6.320121487070169 1.0300309665892644
0.6911746484852351 6.372736536752015 1.015056042917566
0.7193402634786352 6.199782477927768 1.0018539461698244
0.8310221754619773 6.644348993192427 1.0349820642459642
0.7064565281049716 6.510323882973957 1.056013183339981
0.7690048619674438 6.519933648996868 1.11311139523528
0.729685696895429 6.62118226153558 1.1131581132002772
0.6865565512087239 6.5432113818383835 1.090509547226277
0.7152367950336995 6.5646787793197054 1.1184988321537674
0.7330693629097664 6.589489058003464 1.0708869838374397
0.8309346929210638 6.535582905164338 1.11654513820004
0.7620926333827429 6.832645225917959 1.0236310817165122
0.7282374531656209 6.983755540712789 1.048332723546139
0.6901126401196721 6.846183527165691 1.163130721631489
0.7370055362615221 6.924913249837752 1.237017282529889
0.6703295697160518 6.952733141995923 1.1553303548484313
0.7936058244607109 6.6920949996225 1.2462455389358857
0.785487892098811 7.515655468777643 1.2983447387591411
0.7613674360335495 7.703906851676876 1.3578791267944952
0.7771337740834164 7.703016308938467 1.340409198244663
0.7489259771391572 7.740426000438024 1.412912098325931
0.7668346177349942 7.732970727900261 1.452320594059459
0.7511905570361115 7.5640610326457836 1.5490096118614527
0.8133292697715157 7.750952663111198 1.48722109861132
0.7912957530020522 7.808970317128072 1.260905586930882
0.7281636366625093 7.611163557187438 1.4166895623595268
0.6231567205231542 7.713669815459481 1.4495850428137833
0.8224779710435306 7.644415514009648 1.3963627120138318
0.8127293409358693 8.019125491381818 1.486766604544557
0.7943649796505983 7.961942896530869 1.627147249628108
0.7807548772372243 7.9623311879730325 1.5246915488306378
0.7585416513217047 7.933875391183134 1.4590641506010757
0.7446281928586891 8.00104246832723 1.5195019049869034
0.7691710382433241 7.961153479441988 1.4903054909397044
0.7240570787628533 7.922608723214776 1.525535312639359
0.8089028929519827 7.921274455170421 1.4696465559576382
0.8172181353283041 7.974109391777882 1.506301319313726
1.292864131936102 7.540189544077014 0.9004356701220269
1.2976707611951848 7.682563142838298 0.9959234442990277
1.2748067731536696 7.516370562187022 1.0897965632459328
1.3754933668062042 7.543066458848584 1.0402104271721984
1.4589740200421266 7.541311925109828 0.8996723083627249
1.408434964306111 7.5806966030204626 0.8952402522872631
1.388745185356493 7.705860168980246 1.0157370179474017
1.4758811149729183 7.925898335167952 0.97004257025959
1.3569604710090994 7.893651450162135 0.9647270304024482
1.5641039104174388 7.858586239278778 1.0283293472131243
1.4610746306165678 7.723323337674806 1.0429577501783647
1.3542775559825622 7.750276776239258 0.9690229162638021
1.671571263818578 8.506613466472592 0.9767424000973691
1.6867921864348752 8.65376357369721 1.073487622814102
1.6424001307400784 8.734184413057804 0.9318869531445951
1.6587028325754685 8.657106238110016 1.001064232756233
1.6959202898962191 8.669424936321944 1.0276192456844861
-1.1762035834338018 7.613995340940855 -1.0582032227409606
-1.2751135741172357 7.535891736012137 -1.1593071972430717
-1.2896084115319038 7.587051103805773 -1.1783497814941244
-1.242152729964644 7.6125171605629465 -1.2005563800753896
-1.2293336599629987 7.501112119794406 -1.2170690329220872
-1.2736885691239792 7.642549477168872 -1.2068246013839998
-1.3018363231814811 7.646636676958932 -1.224117972366629
-1.256546114704305 7.515667385633435 -1.2843153503355995
-1.3499798525028144 7.580423473253116 -1.2315762984526475
-1.2741736354801583 7.529091288270675 -1.1682269007932788
-1.249633251297763 7.399571715182932 -1.1516231647127972
-1.3199973905060605 7.652873576946125 -1.1415300266549273
-1.401039619181251 7.737531710571614 -1.1998056709845528
-1.288434671822778 7.825971137789759 -1.2266130838120748
-1.262702797036357 7.926584400160875 -1.2768531808954628
-1.2524323905051453 7.785169239637184 -1.1926336288510104
-1.40205930341863 8.559348127943224 -1.3094064460351778
-1.437869307695912 8.609373904394674 -1.2970692215389446
-1.513899910939619 8.644101817484781 -1.2549617462673184
-1.4431383424362327 8.732237073179087 -1.302299527768499
-1.4895426086486674 8.732682828630605 -1.343738517454851
-1.5800963268426458 8.677223200895899 -1.2336604005016887
-1.432263714429852 8.624589908835496 -1.3393452708221447
-1.5024159124763177 8.73883860059364 -1.31452352757494
-1.5727077992560654 8.71741872318054 -1.2495876101906838
-0.6558532775215479 7.668410440749928 -1.668378176381406
-0.7089182876769455 7.708141586836582 -1.5402089878545455
-0.573602484163133 7.438814007914488 -1.6280663833105948
-0.6072782167862667 7.594994374698223 -1.6240183635871959
-0.6477864551220982 7.437261758724109 -1.5436347333023972
-0.633480169762248 7.473371312540866 -1.6285956239163948
-0.5905116211120914 7.626661242682591 -1.7320536322745108
-0.6712304383321354 7.608557630506019 -1.658449003653974
0.6548557272772197 7.049287510555092 -0.09645632279044274
0.6056411829007238 6.952390935728186 -0.12032629910092096
0.5577284622159528 7.130833529320904 -0.1565020326319405
0.5954821116616663 7.663630229535878 -0.10723944461367851
0.6375103778890023 7.730652604645946 -0.2132452206657031
0.6625951816775119 7.640463439279229 -0.16305174528131247
0.7235109797679287 7.579709992294741 -0.1998162807692845
0.6919239467518434 7.661778260782367 -0.20100765682671567
0.7527139069906632 7.737030685659421 -0.16699750147710418
0.6401222934597255 7.537731476597923 -0.1493611965169389
0.6245733505955505 7.6236698197426 -0.2350594974394005
0.5610052465928688 7.62832387669759 -0.26966305306925614
0.48422313306979664 7.698836813003525 -0.3006388168217502
0.6626249352195752 8.06018280152959 -0.18227550965057207
0.6925308512901556 8.071503789585355 -0.1280304469717525
0.684930101191629 7.928778457382218 -0.29378506963689954
0.6859497180809107 7.859854500865482 -0.23568420782767333
0.6872635879519711 8.011081597421503 -0.21970763269994945
0.6521536069765799 7.821212739115601 -0.3137000339662412
0.6301101211704249 8.019466674588735 -0.22591746268454377
0.627359083675994 8.196869029532836 -0.24995165551670723
0.6557602126467093 8.315231857835382 -0.31163983477905216
0.6607740460874443 8.235295807376081 -0.19493824089526207
0.5376436137788866 8.220042556362255 -0.21963752932561503
0.6983281176871121 8.360621243634434 -0.13363112142646744
0.7123442542553913 9.121669418640225 -0.3501441951773939
0.8157645186243835 9.119256449436007 -0.35912818566598237
0.8019464550530253 9.14662266271392 -0.3513459632925229
0.6594978212942729 9.136158724417415 -0.3382018415031328
0.7716656966377958 9.05801942739789 -0.3675825327086303
-0.8799315570609888 7.088708551810782 0.4753960070089055
-0.9203798285267628 6.973776530547862 0.4097305863733286
-0.8679296074824535 7.079602348506884 0.40755697761116627
-0.8270164020342798 6.996380610278206 0.356738876586872
-0.8983543006887705 7.009292437634721 0.37701975752487
-0.8999677576453192 7.002490562528184 0.3868534819880733
-0.921431830307462 6.991821106685691 0.4048268560398742
-0.9589009989246917 7.064385996393898 0.3489610996051361
-0.9683175055321985 7.0029502777461055 0.3812409011512732
-0.8935599005887931 7.0584228263968996 0.3950225519546843
-0.8859194718457366 7.065228355077996 0.3729466121632116
-0.9997168473955774 7.592450308090623 0.5224799385823117
-0.8776929943770972 7.447863319548802 0.3633075003818346
-0.9239792424861663 7.6013841253280106 0.36830125012393355
-0.9234340302117565 7.524239422784687 0.24256577100939186
-0.8882880631739206 7.484759232415012 0.3938575941857554
-0.8572642382186666 7.942371322028161 0.4147733263868306
-0.8705969996375711 7.694098925886454 0.4177155256607421
-0.8548319780975305 7.950359405068327 0.3906941888754511
-1.0057455776937045 7.91561034409429 0.354965094639565
-0.8160529699799981 7.9243569752809035 0.3422293801097537
-0.9793006894692029 7.757476569620387 0.35898640247370145
-0.9555784545769753 7.879698355245499 0.409533341322788
-0.9825457939979376 8.189304217517197 0.38536800508305785
-0.9151996463799265 8.15877403303782 0.3570346024102402
-0.8186932047110852 7.993937439460465 0.35999484682100014
-1.0414892586453564 8.219699099042023 0.3061623203197968
-0.9868914357336643 8.169288952369627 0.3523572454070743
-1.0608991110116472 8.217512745451131 0.3847297360512864
-1.0043208224014673 8.86039045776309 0.4131808903803267
-0.8991399868433512 8.992334021783027 0.38822295062574713
-0.9984478476147961 8.878001882601986 0.3626332151040761
-0.919031333543416 8.926634105126462 0.3464325079241887
-1.0520197649550493 9.07963650424316 0.3513304873088511
-0.8415222607695229 9.019546037114186 0.7853538894748685
-0.9084385398592801 9.0221437755323 0.8675338422948843
-0.9118431597782909 8.856290825922127 0.8122282513544926
-0.929858683838617 8.904189647929341 0.874710929170687
-0.8940987363374762 8.943430653767992 0.8545107251825431
-0.950559058341939 8.776494502332975 0.9354884879193165
-0.9055910744409731 8.844413946238854 0.9036852446542051
-0.8978219119629642 8.906724422643814 0.89281329739106
0.6962674921865258 8.628870802941707 1.5525050600891857
0.719414749727755 8.761277023236712 1.5106793396723739
0.6495174784888322 8.816901135203398 1.577415902539107
0.6230363983323919 8.60823696765789 1.5734727421953851
0.7170769438455334 8.67206065201673 1.6324161575378908
0.7893129041362823 8.820512639284154 1.6724629911412117
0.628128045846763 8.680557808702389 1.5886252616152634
0.4894924092497685 3.35175455509976 -0.27323316776643464
0.651542429550525 3.354085124830401 -0.34450813362484084
0.5258802255997013 3.3397357831198806 -0.4072629738823985
0.6055273647071295 3.368816491653433 -0.5171237941437
0.615627150954374 3.5050245158021363 -0.8632467798125552
0.7217144350533997 3.5394635154075824 -0.9037618248794506
0.6598586282526419 3.4813794980956065 -1.0570629661447228
0.7651219197840948 3.452801236900799 -1.4037790915339996
0.8541044746634596 3.4669140253695976 -1.5685813356514693
-0.5753979920028861 4.002950006635225 0.12839800671728926
-0.47683081938906136 4.00813294510439 0.09366429962939826
-0.6736284786513113 4.104458713637282 0.08645096819552632
-0.8074320293118462 3.925956352500227 0.35934251168664655
-0.9567258965787591 4.108577877643557 0.15432937787079118
-0.981571199655762 4.069762659599761 0.17066767340412464
-1.151842219205272 4.211221589451444 0.06001938077987344
-1.1444579745500472 4.10205105652947 0.07998717592560947
-1.3195727403045887 4.217157809144133 0.18017623379189104
-1.3031588091478714 4.210783245962692 0.05709548629944894
-1.352494039987986 4.1248811513871955 0.1376280173951479
-1.289528769502395 4.231058897721915 0.07324356339860517
-1.2008747987383273 4.124288604488043 0.035229791754028406
-1.5159295206552907 4.200886029123446 0.19716390946047668
-1.450346253205204 4.1833703170434235 0.15581344721993445
-1.6938411665164521 4.256943218744596 0.0914650986133945
-1.7018184285438085 4.162617384208483 0.25439464484127783
-1.791704357105884 4.229025870725509 0.23294689620088066
-1.7921533653557784 4.176468082255553 0.18899120454950846
-1.8540508388361814 4.1116354081170625 0.19000544242429193
-2.0165106293554436 4.1107433401402576 0.17691549666335127
-2.046282847441101 4.189947313291215 0.24184984725978334
-1.9131426845045147 4.172355714456193 0.2566426430476798
-2.1895657898193615 4.1196439170315875 0.24747641897659456
-2.1206528320095184 4.099544101725189 0.21661504450572477
-2.225416592830727 4.204445566268297 0.31629129116280386
-2.1777579884631093 4.124097303312989 0.19611364767275596
-2.1914755735818208 3.8255086876267113 0.2754250857142022
-2.516382691570513 4.000872010335019 0.32934737324545377
-2.7092206244860213 3.8985857992196085 0.29710205826409897
-2.6459905527352894 3.8043784938877905 0.2873484217346992
-2.8423134348255426 3.831307100421321 0.3042266410009419
-2.9683241055758294 3.7220454560623857 0.3829173256177118
-3.1583932830686647 3.6657471154365235 0.26970306448727666
-3.346503756318161 3.595708657998006 0.35699731433657295
-3.3585807460750856 3.592156885485286 0.35569973336638
-3.363642380920571 3.519823244138107 0.33587098751052574
-3.4957852961286604 3.3924848147484847 0.40785484560392626
-3.652507424705191 3.2040154435883457 0.4897158960461807
