ply
format ascii 1.0
comment VCGLIB generated
element vertex 1091
property float x
property float y
property float z
element face 0
property list uchar int vertex_indices
end_header
1.92848 4.94951 1.4421
2.74387 4.80877 1.67075
-0.0587747 5.49457 -2.09035
-0.0112275 5.51827 -2.11177
0.0386355 5.50909 -2.17453
0.621579 8.106485 1.81799
0.652991 8.360687500000001 2.0438225
0.847104 8.45526 2.29858
0.821129 8.45218 2.31737
1.10302 8.60241 2.81873
1.15957 8.63126 2.92184
1.322015 8.677805 3.086715
-0.415426 8.59392 -2.29824
-0.0715516 8.87005 -3.15375
-1.15141 9.85359 1.08618
-1.13742 9.8477 1.09578
-1.27691 10.1503 1.37389
-1.4306 10.4582 1.661
-1.979112 9.09408 0.5513430000000001
-2.12507 9.3734 0.590145
-2.55067 9.69752 0.816118
-2.9712 9.88045 1.07098
2.4064316666666667 9.13641 2.0374083333333335
-2.06734 9.31662 -2.14928
-2.0992699999999997 9.331386666666667 -2.164576666666666
-2.0445325 9.28073 -2.1959775
-2.266105 9.484845 -2.204765
-2.89315 10.1383 -2.42123
2.10638 8.75057 -0.622507
-0.5277155 10.53625 -2.188565
1.45447 11.0838 0.768212
-1.7107 10.0993 1.67172
-1.70382 10.0617 1.64644
0.941862 9.13977 2.13809
1.02559 9.486075 2.4611799999999997
1.10069 9.64378 2.70527
0.813459 10.0398 -0.59235
1.23956 10.8053 -0.9784079999999999
-1.2663625 10.0662 0.3170165
2.27738 8.834085 -0.2579495
2.58728 9.503634 0.045991206
2.77869 9.771374999999999 0.233767
2.951475 10.061150000000001 0.3646455
-0.8704976666666667 9.563716666666666 1.0415333333333332
-0.9919595000000001 9.97457 1.0838
-1.17712 10.7322 1.03927
0.5655891428571428 3.3447485714285716 -0.40088899999999994
0.756432 3.38866 -0.663204
0.968466 3.36187 -0.86271
1.35684 3.12181 -1.20961
2.51309 4.34552 2.36834
3.4161333333333332 3.639496666666666 3.04824
3.77816 4.35369 2.07505
-0.5262351428571428 5.681051428571429 -2.9227285714285713
-0.5108695000000001 5.615971666666665 -3.2240849999999996
-0.105016875 5.160335 -4.4613575
-0.5456416666666666 5.656396666666666 -3.0983866666666664
0.514533 4.53735 -3.81396
-0.800644 6.92254 2.43912
-0.7638705 6.917695 2.647205
-0.693382 6.82383 3.35454
1.0371883 7.154719 -0.2886729
1.0532475000000001 7.231757500000001 -0.27932524999999997
1.16466 7.277744285714285 -0.34940328571428575
1.15549 7.4266950000000005 -0.423502
1.21374 7.45196 -0.487406
1.37645 7.84305 -0.782331
1.41222 8.02259 -0.932869
1.54862 8.35272 -1.13235
1.93889 9.18228 -1.72153
1.84358 7.90938 -0.881907
1.85327 7.88809 -0.876788
2.07723 7.9479 -1.04396
2.43499 8.05741 -1.21286
3.3894 7.36612 -0.997171
-1.61638 7.47447 -1.06124
-1.773885 7.73187 -1.128815
-1.83992 7.83141 -1.09971
0.538072 8.0708 1.78119
0.517601 8.04346 1.85003
0.482373 8.13069 1.94172
0.422601 8.18735 1.96424
0.22422150000000002 8.277215 2.3119199999999998
0.507794 8.8206 2.38507
-1.22058 10.82885 0.0725626
-2.6712800000000003 10.4687 0.66117
-2.7166 10.667 0.661184
-2.07127 9.299545 -2.30191
2.87693 9.73615 -1.06657
1.1291 11.138100000000001 0.76631
1.396115 10.197600000000001 3.18487
2.55053 9.792876 1.042008
3.20898 10.0928 1.12486
-1.0575 9.258469999999999 -2.707005
-1.4102466666666666 9.18033 -3.243606666666667
-1.55629 9.07955 -3.52348
-1.217295 9.45488 -3.167335
-1.248325 9.460270000000001 -3.20874
-0.211035 10.1275 -2.92582
0.8943426666666667 10.703899999999999 -0.8572506666666666
0.8731800000000001 11.187750000000001 -0.954045
-1.5030066666666664 10.520333333333333 0.23199499999999998
3.01194 9.2270325 -0.434031
3.56088 9.25132 -0.550092
3.73992 9.24728 -0.5597246666666666
0.1497685 9.638214999999999 2.129915
-0.187175 9.93271 2.696263333333333
1.030345 10.221599999999999 2.0997700000000004
1.2972399999999997 10.5194 2.25714
-0.0633041 0.116881 -0.188237
-0.17820750000000002 0.2034045 -0.08175935
-0.1198536 0.060218563333333336 -0.14727433333333334
-0.18370899999999996 0.204154 0.040125266666666666
-0.08403726 0.19920040000000003 0.1750872
-0.07612843333333333 0.08931206666666666 0.17295966666666665
0.13646399999999997 0.04376186666666666 0.13382799999999997
0.19106399999999996 0.06418427 0.016316313333333332
0.191285 0.0612668 -0.0728061
0.08397035 0.07984445 -0.1853285
0.125027 0.0 -0.145359
-0.09043506000000001 0.3419498000000001 0.15232420000000002
-0.156566 0.3951555 0.09796875
-0.11670844000000001 0.4450482 0.1308622
0.06275096000000001 0.486159 0.1833418
0.17889366666666665 0.3646286666666667 -0.0826396
0.0899891 0.309696 -0.175745
-0.16511766666666666 0.6178843333333333 0.0012462033333333331
-0.0723387 0.6430880000000001 0.1677458
-0.15326 0.572987 0.0932611
0.03347063333333333 0.7395733333333332 0.18333266666666664
0.16236240000000002 0.7670548 -0.09321348000000002
0.193528 0.604189 0.0533708
0.063105525 0.93764625 -0.16701749999999999
-0.10445043333333333 0.9144196666666666 -0.11696648333333333
-0.16109866666666664 0.903082 0.02318293333333333
-0.166678 1.08844 -0.0649406
-0.0834589 0.940242 0.14635199999999998
0.034011 1.4094 -0.180596
-0.177952 1.2556 0.0413127
-0.0666766 1.3672625 0.14990075000000003
-0.07741053333333334 1.2189483333333333 0.16019916666666667
0.116154 1.35784 0.0891548
-0.0519821 1.496425 -0.18651375
-0.004858455 1.466555 -0.1835425
0.06245648000000001 1.62228 0.17110740000000002
0.09971555 1.6195116666666665 0.006572536500000001
-0.073072875 1.7355399999999999 -0.205845
-0.22486620000000004 1.8809840000000002 0.04039256
-0.19598625000000003 1.7576425000000002 0.059765700000000005
0.008338485 1.8845299999999998 0.05342395
-0.299309 2.17509 -0.151191
-0.31626200000000004 2.20489 -0.11284654999999999
-0.192742 2.05473 0.0745773
-0.10508325 2.19076 0.055186675000000004
-0.10239163333333334 2.2148866666666667 -0.206614
-0.3151465 2.4789849999999998 0.0039511500000000005
-0.328877 2.3643799999999997 -0.0029004515
-0.1336075 2.6273 0.029449252500000002
-0.11867565 2.709996666666666 -0.10181014999999999
-0.28958033333333333 2.9956066666666663 0.11563199999999998
-0.21336899999999998 2.8949716666666667 0.06250536666666666
-0.448231 3.35855 -0.0933927
-0.5067216 3.306384 0.03730281800000001
-0.487992 3.19786 -0.0398373
-0.473337 3.161013333333333 0.04565243333333333
-0.255172 3.336785 0.039012864999999994
-0.22270099999999998 3.20762 -0.01567953
-0.49502900000000005 3.74017 -0.0517232
-0.48300433333333326 3.5842633333333334 -0.06079686666666667
-0.48526840000000004 3.437538 0.1342662
-0.299643 3.49249 0.10726
-0.31693433333333326 3.60501 0.02267051666666666
-0.30177299999999996 3.576955 0.040081475
-0.304249 3.48748 -0.0349793
-0.4359905 3.843445 -0.0452651
-0.5608484999999999 3.7155383333333334 0.006376311666666665
-0.6133044000000001 3.916336 0.1296314
-0.5147832 3.731348 0.1696622
-0.37619175 3.77393 0.1468585
-0.663503 4.3163375 0.0645419275
-0.4917337142857143 4.282522857142857 0.194804
-0.6487328571428571 4.726298571428572 0.06270675714285714
-0.632455 4.585103 0.2506142
-0.7081 4.61721 0.224357
-0.6694062 4.752534 0.2592108
-0.5276445000000001 4.6216349999999995 0.1306685
-0.580845 4.6852 0.0733427
-0.5591919999999999 4.59314 0.06605435
-0.6656013333333333 4.982669999999999 0.2723838333333333
-0.6091415 4.9106749999999995 0.17464
-0.6452458000000001 5.134193000000001 0.15990130000000002
-0.8780067500000001 5.4661825 0.21987575
-0.724886 5.56093 0.210913
-1.1275 6.59 0.3892123333333333
-1.4031716666666665 7.575756666666667 0.42968999999999996
-1.422285 7.652229999999999 0.406353
-1.4657366666666667 7.67601 0.38225866666666664
-0.025418 1.85942 -0.0501211
0.24951399999999999 1.7499950000000002 0.040009825
0.184113 1.902285 -0.099942625
0.05323618333333333 2.3415799999999996 0.026619066666666667
0.26774149999999997 2.027485 0.133948
0.07481788888888888 2.332072222222222 0.17619022222222222
0.34259566666666663 2.466733333333333 0.14697466666666664
0.11422825 2.7537874999999996 0.16418225
0.17264149999999998 2.631205 0.27141725
0.326291 2.7500400000000003 0.29109850000000004
0.403724 2.81191 0.227632
0.30865299999999996 2.6161966666666663 0.25906966666666664
0.326314 3.03351 0.09168796666666668
0.33921500000000004 3.039152 0.3540418
0.4243305 3.0522325 0.29724575000000003
0.21408628571428567 3.153722857142857 0.3336328571428571
0.254677 3.53059 0.379498
0.382394 3.4554 0.4514535
0.48138899999999996 3.4534399999999996 0.297779
0.4790371666666667 3.893614999999999 0.31329283333333335
0.549515 3.885405 0.3719405
0.37492925 3.9921675 0.3427395
0.3882175 4.1800525 0.54081025
0.46694166666666664 4.163664999999999 0.5812761666666666
0.4976046666666666 4.025103333333334 0.5521128333333333
0.4363805 4.30555 0.4075625
0.38840850000000005 4.2542575 0.477045
0.6049102000000001 4.459756 0.4684334
0.618108125 4.56981 0.48974975
0.4794275 4.5695025 0.475186
0.5197765000000001 4.620945 0.6754735000000001
0.5258056666666666 4.904746666666666 0.70072
0.7062813333333332 5.021983333333333 0.7017636666666666
0.6226498333333333 5.293905 0.6437216666666666
0.6439499999999999 5.41596 0.8249126666666666
0.69847 5.34284 0.81932
0.6724330000000001 5.6851199999999995 0.8418460000000001
0.8407 5.73801 0.84871075
1.4448 7.48202 1.22309
-0.36785233333333334 2.6255100000000002 -0.10535796666666665
-0.3324592 2.611056 -0.23891859999999998
-0.37249766666666667 2.73897 -0.24539049999999998
-0.401673 2.8790620000000002 -0.2495796
-0.3921753333333333 3.21439 -0.22952399999999998
-0.2119002 3.209752 -0.2399928
-0.226251 3.31942 -0.398619
-0.33983525 3.3533999999999997 -0.47296475
-0.3905457142857143 3.161291428571429 -0.39463428571428566
-0.452502 3.23151 -0.316284
-0.45056399999999996 3.5938600000000003 -0.310919
-0.29861 3.48398 -0.254133
-0.290397 3.58811 -0.30254
-0.270547 3.48132 -0.464386
-0.435518 3.41282 -0.455917
-0.4501 3.507705 -0.47476850000000004
-0.2854532 3.8361040000000006 -0.43296599999999996
-0.40025999999999995 3.920833333333333 -0.6117616666666666
-0.36458 3.8217 -0.585946
-0.36861512500000004 3.75030375 -0.560328125
-0.5074503333333333 3.7441 -0.4154913333333333
-0.5430359285714285 4.162562142857142 -0.5210921428571429
-0.3903948 4.14065 -0.4440612
-0.5983636666666666 4.57602 -0.586441
-0.5318246666666666 4.557689999999999 -0.7296573333333332
-0.604486 4.65081 -0.757763
-0.70729 5.37236 -0.741485
-0.731251 5.31991 -0.724903
-0.7603175 5.3523 -0.9070754999999999
-0.7796279999999998 5.7072373333333335 -0.9517403333333334
-0.87401 5.56791 -0.898301
-1.01624 6.32787 -0.959192
-0.9904955 6.4263325 -0.9835542500000001
0.27240549999999997 2.42811 -0.0566604
0.11148166666666666 2.73603 0.0659942
0.4029925 2.80347 0.02865695
0.32223525 2.7062675 -0.057989175000000004
0.20615233333333333 2.8606533333333335 -0.06270626666666666
0.415515 2.90925 0.055514327499999995
0.258364 3.38506 -0.0541132
0.19923566666666664 3.18797 0.02680463333333333
0.27579025 3.6057300000000003 0.047682725
0.515494 3.5992549999999994 0.03334200666666666
0.5289005 3.7439633333333338 0.03421525166666667
0.48390311111111106 3.5895577777777774 -0.07024014444444444
0.355323 3.77522 -0.09629275000000001
0.371161 3.85223 0.1088
0.4387238 3.8866420000000006 0.11267480000000002
0.5321560000000001 3.85587 0.06853195000000001
0.5575736666666666 3.91272 0.006864180000000001
0.553875 3.88499 -0.0471382
0.48051900000000003 4.065005 0.09198434999999999
0.45537840000000007 4.445918000000001 0.028091500000000005
0.7115132500000001 4.7459125 -0.09040885
0.7249136666666667 5.168823333333333 -0.121444
0.8444985 5.2408850000000005 -0.032427450000000003
0.8723983333333332 5.319603333333333 -0.19102633333333333
0.79702825 5.4835425 -0.12252492499999999
0.892786 5.70717 -0.19410149999999998
0.9894289999999999 5.6051649999999995 -0.20499699999999998
1.2201325 6.4731950000000005 -0.2598745
1.1963949999999999 6.4444300000000005 -0.165232
1.2794416666666666 6.4554166666666655 -0.15514266666666665
1.66146 7.642426666666666 -0.31060099999999996
-0.4255793333333333 4.751698333333333 -0.682815
-0.430737 4.81071 -0.682406
-0.4376595 5.025985 -0.7725065
-0.441488 5.118375 -0.8063785
-0.538309 5.66355 -0.879571
-0.5444539999999999 5.626616 -1.034526
-0.590755 8.0301 -1.45337
0.62070825 5.14161625 0.0027807906250000005
0.51072125 5.2836324999999995 -0.1064528
0.6036908 5.283480000000001 0.01685014
0.51071875 5.5788875 -0.09116805
0.5127379999999999 5.741015 -0.0989221
0.5323676999999999 6.292457 -0.09944605000000001
0.5400296666666666 6.470179999999999 -0.10414179999999998
-0.8490226666666667 6.706219999999999 0.4109716666666666
-0.90599975 6.5933525 0.4196375
-0.849316 6.579656666666666 0.40453966666666663
-1.14218 8.765273333333333 0.9134789999999999
-1.14641 8.79845 0.954182
0.6584048 5.594756 0.7280562
0.6597189999999999 5.570153333333332 0.8343239999999998
0.669673 6.21776 0.945705
0.67777 6.2724 1.00582
0.662138 6.12913 0.941121
0.756245642857143 6.406077857142858 1.028349
0.7639811666666666 6.560831666666666 1.1057583333333332
0.7531675000000001 6.736357142857142 1.149452857142857
0.780602 7.89864 1.51644
1.310635 7.4378075 0.93972075
1.3947380000000003 7.599516 0.9790374000000001
-1.2818366666666665 7.651646666666666 -1.1542933333333334
-1.28641 7.79605 -1.21641
-0.5843995 7.41064 -1.5679850000000002
0.6888156666666667 7.530226666666666 -0.16169833333333333
0.6849427499999999 7.5331275 -0.1943535
0.6879806666666666 7.678706666666667 -0.19032133333333334
0.687405 8.92191 -0.313211
-0.8546583333333333 6.851338333333333 0.37134316666666667
-0.868492 6.92066 0.35374
-0.9935158333333334 8.140173333333333 0.406501
-1.01133 7.97978 0.382718
0.516868 3.3911499999999997 -0.392715
0.5335415 3.3747749999999996 -0.470431
0.688648 3.54165 -0.994289
0.6758846666666667 3.4900433333333334 -0.9247703333333332
-0.7791196 4.0218300000000005 0.06338084000000001
-1.040355 4.16562 0.146648
-1.0128 4.12465 0.080173
-0.984144 4.13344 0.083563
-1.05958 4.08829 0.0901604
-1.081145 4.07817 0.1501425
-1.5262 4.2408 0.171566
-2.110405 4.075285 0.22961875
-2.22048 4.073108 0.27036879999999996
-3.709493333333333 3.2607133333333334 0.38996
3.20129 4.661020000000001 1.837175
3.22117 4.63907 1.84065
3.857268 4.4503319999999995 1.936026
-0.437826 5.22006 -0.992204
-0.493379 5.21191 -1.04858
-0.4167586666666667 5.376833333333332 -1.14243
-0.22096000000000005 5.468701111111111 -1.7772633333333334
-0.185848 5.531836666666667 -1.8778166666666665
-0.1253465 5.476319999999999 -1.84557
-0.10370810000000003 5.463640000000001 -1.9468820000000002
0.1631375 5.3579550000000005 -2.425005
0.18071460000000003 5.38627 -2.496574
0.252253 5.240193333333333 -2.741816666666667
0.448266 5.05183 -3.14129
0.5114434285714285 4.9107442857142845 -3.3874057142857144
0.586073 4.81856 -3.57399
0.668362375 4.671755 -3.7515875000000003
-0.8802133333333333 6.1695899999999995 0.5554813333333333
-0.781391857142857 6.164068571428571 0.5860337142857143
-0.871241 6.21507 0.595316
-0.7897213333333333 6.460303333333333 0.9770463333333332
-0.8148945 6.63768 1.168615
-0.789694 6.77138 1.67487
-1.0401525 7.04602 2.6110499999999996
-1.14452 7.13034 2.78716
0.7075726000000001 6.721038 -0.10788546000000002
0.7068355 6.770315 -0.194751
0.825466 6.89201 -0.202258
0.8775151666666666 7.001829999999999 -0.23656900000000003
1.05655 7.1639 -0.323606
1.2864025 7.3623975 -0.30645900000000004
1.3436899999999998 7.37903375 -0.35599475
1.32694 7.317830000000001 -0.31147650000000004
1.96807 7.48027 -0.466347
2.06255 7.521908000000001 -0.4533594
-1.46761 7.29084 -1.01979
-1.739455 7.46884 -0.9079235
-1.734135 7.476215 -0.877401
-2.219315 7.622785 -0.6406905
-2.26403 7.60975 -0.597733
-2.7693100000000004 7.587134000000001 -0.4590504
-3.1629750000000003 9.924775 1.175255
2.18970625 8.927225 1.8715237500000002
3.0783 9.60878 2.58834
2.09119 8.79979 -0.627478
2.28028 9.1488 -0.75378
2.35173 9.255956666666666 -0.8069776666666666
2.82389 9.84619 -1.1706
-0.5448173333333333 9.100719999999999 -1.6076266666666668
0.824392 9.75532 0.318346
0.9872263333333333 10.279833333333332 0.5293163333333333
0.9918170000000001 10.26925 0.5164635
1.24803 10.9183 0.731804
-1.986523333333333 10.5304 1.943463333333333
2.4029220000000002 10.523040000000002 1.3157480000000001
-1.5344639999999998 8.776932 -1.2962520000000002
-1.59018 8.98605 -1.30796
-0.7337309999999999 8.669435 -2.106845
-0.559212 9.43061 -2.55952
-0.474189 9.774722500000001 -2.9598825
-0.5254185 9.986775 -3.318175
1.2835699999999997 10.850299999999999 -1.0046533333333332
-1.405215 10.503350000000001 0.32020000000000004
-1.36772 10.94405 0.381735
-1.3639224999999997 11.02765 0.39018499999999995
2.65074 9.57215 0.107908
2.823463333333333 9.854926666666666 0.261702
3.064405 10.18455 0.495065
-1.15317 10.5626 1.03617
-1.1973675 10.947175000000001 1.044125
0.6409593333333332 9.49561 1.7896133333333335
0.829674 10.1891 2.06822
1.482395 3.028015 -1.362355
2.06538 2.668685 -1.71639
1.76951 2.6982 -1.74931
1.79517 2.6322650000000003 -1.817675
1.81527 2.59244 -1.86558
1.95011 4.94211 1.51623
2.02418 4.79624 1.59825
2.03145 4.83047 1.6852550000000002
2.123785 4.811785 1.7340200000000001
2.10236 4.72858 1.76085
2.1848780000000003 4.711313 1.8637709999999998
2.23028 4.62884 1.93905
2.40855 4.54177 2.127975
2.53113 4.41325 2.32239
2.60727 4.24257 2.50668
2.76705 4.08536 2.68072
2.9842633333333333 3.9274533333333332 2.8190866666666663
3.57673 4.52305 1.95314
3.58439 4.50061 1.95408
3.9543233333333334 4.211123333333333 2.2175133333333332
4.10394 4.07743 2.33253
2.899325 3.97409 2.802665
2.9680125000000004 3.5833312499999996 3.2687062499999997
2.98824 3.52823 3.33812
-0.321087 5.53185 -1.57072
-0.36406460000000007 5.690466 -2.1276520000000003
-0.41819233333333333 5.70441 -2.2557099999999997
-0.45002200000000003 5.709004999999999 -2.426325
-0.520343 5.65427 -3.170395
-0.38356599999999996 5.524629999999999 -3.7536533333333333
-0.36746599999999996 5.50237 -3.80695
-0.8842105 5.62378 -3.704575
1.29295 7.6669350000000005 -0.583286
1.8472633333333335 8.974023333333331 -1.5692766666666664
2.7400399999999996 8.1428425 -1.3545025
0.03105715 8.348904999999998 2.846195
-0.003197 8.45253 3.27981
-0.00141925 8.4709 3.33617
0.59015525 8.563555000000001 2.1793375
0.587641 8.60234 2.2493
0.47458199999999995 9.02608 2.624345
-0.322438 8.270225 3.24321
-0.4324009999999999 8.228416666666666 3.502693333333333
1.2034 8.62636 3.09982
1.2353779999999999 8.629986 3.2884680000000004
1.2552500000000002 8.624013333333334 3.41221
0.435558 9.2796475 2.84324
0.3564853333333333 9.37838 2.97547
-0.6193695 8.674990000000001 -2.1668000000000003
-0.9296381666666667 9.809706666666665 -2.630503333333333
-1.03395 10.1597 -2.71496
-1.0485233333333333 10.2286 -2.7342933333333335
-0.7629927142857144 9.388225714285714 -2.659952857142857
-0.7456736666666666 9.57807 -2.88884
-0.7559336666666666 9.78713 -3.101523333333333
-0.04563433333333333 8.928830000000001 -3.626972222222222
-0.09868974999999999 8.91691 -3.8688149999999997
-1.09183 9.525056000000001 0.39707840000000005
-1.133195 9.669405000000001 0.3920035
-1.493665 9.972985000000001 0.3840335
-1.53267 10.0004 0.386732
-1.621975 10.0994 0.384081
-1.84201 10.3309 0.398884
-2.0816999999999997 10.5576 0.446442
-1.1302150000000002 9.782985 0.33441925000000006
-1.1326066666666668 9.930066666666665 0.29735566666666663
-1.14016 10.0538 0.255916
-1.19543 10.5184 0.120754
-2.59183 10.09855 0.565144
-2.63225 10.2736 0.623765
-2.659462 10.38404 0.6512777999999999
-2.73833 10.7691 0.662141
-2.757835 10.174399999999999 0.421613
-2.8542 10.2635 0.381305
-2.1737575 9.36261 -2.5008925
-2.360313333333333 9.444621666666666 -2.8136150000000004
-2.3966 9.45339 -2.87901
-2.5597 9.51774 -3.17597
-2.579955 9.529959999999999 -3.217815
-2.6412999999999998 10.225066666666665 -2.5048166666666667
3.034886666666667 9.8279 -1.07869
3.424675 10.05065 -1.190885
1.42586 10.2369 3.2095
2.244075 9.634805 1.03898
2.4792466666666666 9.756043333333333 1.0340833333333335
2.770386666666667 9.8905 1.04789
2.75168 9.87861 1.05455
-2.17174 10.223949999999999 -1.5047199999999998
-2.20685 10.31485 -1.49131
-0.9613536666666667 9.240073333333331 -2.6268666666666665
-1.26365 9.23462 -2.8826
-1.4604471428571428 9.151537142857142 -3.3534242857142855
-1.59955 9.04641 -3.60328
-1.002447 9.324123333333333 -2.7687600000000003
-1.01522 9.34699 -2.83061
-1.04526125 9.38629 -2.924245
-0.169653 10.2829 -3.02613
-1.83952 9.20788 -3.48641
0.888387 10.7375 -0.868914
0.8836925 10.82545 -0.8861635
0.876172 10.9399 -0.903539
-1.462215 10.4361 0.2623605
2.39505 9.023335 -0.257703
2.8790666666666667 9.214973333333333 -0.3973853333333333
3.12277 9.22956 -0.459143
-0.650387 9.758 1.26569
-0.5662115 9.845385 1.397895
-0.402062 10.1144 1.9085
-0.379757 10.1554 1.9891800000000002
-0.21877775 10.248899999999999 2.3062725
-1.002646 10.044049999999999 1.249965
-1.1676700000000002 10.4191 1.5773899999999998
-1.23874 10.562999999999999 1.68682
-0.438498 10.36595 2.25368
-0.45189 10.404900000000001 2.30567
0.525835 9.30729 1.79244
0.4568893333333333 9.395886666666666 1.8348733333333334
0.23863099999999998 9.57817 2.0269199999999996
0.191626 9.61138 2.06625
-0.0069187499999999996 9.747035 2.341055
-0.122118 9.867764999999999 2.536485
-0.2575905 10.00965 2.952745
1.13229 10.3336 2.15099
0.17759940000000002 0.201733 -0.08340402000000001
0.19089 0.261732 0.0170351
-0.12704433333333334 0.5248046666666666 -0.1112914
-0.17062525 0.48290775 2.764870000000003E-4
0.15758866666666665 0.5104266666666667 -0.10112646666666666
-0.082687 0.74673 0.1589125
0.136246 0.818082 0.133916
0.191366 0.785655 0.025400785
-0.163006 0.964009 0.0271206
-0.16613533333333333 1.06466 0.012664996666666666
0.130163 1.04239 0.122138
0.104234 0.948408 0.156547
-0.180516 1.366885 -0.07490955
-0.174978 1.2235 -0.0443824
0.05625047999999999 1.3580360000000002 0.16002860000000002
-0.12050287500000001 1.6454499999999999 -0.1960955
0.117674 1.53481 0.0503403
-0.179739 1.86934 -0.204487
-0.00767062 1.91195 -0.181079
-0.20755600000000002 2.210565 0.07387435
-0.1206679 2.583245 -0.1928475
-0.1939465 3.075985 0.015467600000000001
-0.29504 3.42234 -0.047603
-0.283481 3.35735 -0.0581403
-0.4252815 3.7129149999999997 -0.060029400000000004
-0.5344346666666666 3.584156666666666 0.125407
-0.4689405 4.1675249999999995 0.01990027
-0.653232 4.50887 0.246643
-0.581919 4.8069 0.109116
-0.7651006666666667 5.002543333333333 0.26503299999999996
-0.67781 5.30725 0.2707395
-0.8256589999999999 5.575115 0.169957
-1.15363 6.57483 0.388748
-1.3149933333333332 6.996776666666666 0.33891866666666665
-1.58382 7.89701 0.431026
-1.56145 8.0457 0.476239
0.159793 1.3803199999999998 0.12062999999999999
0.14014100000000002 1.5910199999999999 0.177756
0.262875 1.88526 0.10563
0.20654899999999998 2.1841749999999998 -0.08519118333333332
0.218981 2.2062559999999998 0.21633080000000005
0.28791 2.48802 0.246794
0.298959 2.87851 0.0456523
0.255722 3.41026 0.392732
0.433965 3.27564 0.374344
0.403837 3.2316 0.392573
0.45637099999999997 3.92445 0.540918
0.551661 4.14996 0.384783
1.19515 6.87633 1.09883
-0.2504865 2.76973 -0.328311
-0.454848 3.33389 -0.397105
-0.453148 3.29191 -0.281549
-0.392759 3.71702 -0.312342
-0.371386 4.135676666666666 -0.6330856666666667
-0.592006 4.37428 -0.636196
-0.606111 4.65785 -0.598636
-0.6233770000000001 4.7174933333333335 -0.7663466666666667
-1.04248 6.5448725 -1.0104374999999999
-0.991984 6.50661 -1.01253
-1.2888 7.48523 -1.36744
0.247749 3.11976 -0.07462
0.403747 3.05894 -0.0472193
0.27712250000000005 3.0551649999999997 -0.09130455
0.26143 3.40296 0.0988665
0.45537950000000005 3.323175 -0.04689515
0.394593 4.30715 -0.026068
0.716476 4.81134 -6.19906E-4
0.850988 5.36524 -0.0284539
1.362035 6.694525 -0.173444
1.37745 6.9418 -0.243078
-0.443945 4.58326 -0.745236
-0.5023415 5.816545 -1.0578150000000002
0.529693 5.65456 -0.015106
0.539741 5.94805 -0.0274561
0.6523115 7.1505375 -0.025790875
0.6811993333333334 8.339946666666666 0.061771333333333324
-0.842728 6.39661 0.387271
-0.8468523333333333 6.696376666666667 0.3502493333333333
-0.866856 7.082463333333333 0.44421399999999994
0.703698 6.36207 0.943691
-1.301845 7.59086 -1.15663
-1.5173099999999997 8.746133333333333 -1.3094433333333333
-0.867841 7.06157 0.377655
0.407647 3.18652 -0.0557751
0.690218 3.54149 -1.06972
0.680668 3.4922 -1.03306
-0.9267345 4.13697 0.11022699999999999
-1.15913 4.13795 0.0905429
-2.85763 3.81444 0.304326
-3.54435 3.38242 0.365379
-3.73775 3.236115 0.392287
-0.491849 5.371205 -1.12072
-0.423996 5.25936 -1.0086
0.591941 4.79868 -3.55849
0.685028 4.66097 -3.79023
0.678559 4.64755 -3.78316
-0.7892789999999998 6.783426666666667 1.47377
-1.16989 7.12065 2.77456
-1.30405 7.19454 3.0512
1.23848 7.34811 -0.307305
1.421218 7.3784220000000005 -0.31125860000000005
1.99961 7.47414 -0.459553
3.51594 7.55294 -0.556328
-1.51644 7.354555 -1.0488
-1.71466 7.5244 -0.877194
-1.7780200000000002 7.51299 -0.9005285
-1.96909 7.58464 -0.7282044999999999
-2.29787 7.623155000000001 -0.6087155
0.6709309999999999 8.422415 2.12679
0.970135 8.49524 2.4889
0.9982559999999998 8.526113333333331 2.558263333333333
-0.521879 9.56041 -1.75177
0.7844363333333334 9.400513333333333 0.21947766666666668
-1.56746 9.88483 1.50653
1.21856 10.0177 3.21625
1.21311 10.0333 3.31662
1.96292 9.31148 1.02972
-1.70161 9.32694 -1.38453
-2.316335 10.337 -2.00322
0.88121 10.3257 -0.723017
1.10528 10.6515 -0.889848
1.30249 10.8724 -1.01204
2.79378 9.82042 0.24794
0.621022 9.44026 1.79713
1.14976 3.27407 -1.04072
1.55418 2.98015 -1.42058
1.56548 2.95517 -1.4451
1.92841 2.73796 -1.66861
2.00311 2.69715 -1.69543
1.83962 2.53248 -1.92864
2.36201 4.5128 2.12603
2.51166 4.39901 2.36232
3.4653 3.61007 3.0774
4.07277 4.10281 2.30869
-0.350919 5.66188 -1.97388
-0.55394 5.641605 -2.9517100000000003
-0.3014445 5.437469999999999 -3.974925
-0.862159 5.65058 -3.65867
-0.875277 5.64971 -3.69185
1.34143 7.69289 -0.63079
-3.11269 8.64462 -1.90743
0.073276 8.31272 2.75667
0.4726395 9.09206 2.685415
0.52456 9.46677 2.84691
0.545572 9.53766 2.86502
0.37916 9.33713 2.91828
-0.750405 9.72958 -3.03328
-0.763203 9.85251 -3.16787
-2.41661 9.75364 0.58107
-2.107813333333333 9.330973333333333 -2.3568933333333333
1.37081 10.1662 3.16992
2.95156 9.97375 1.07581
-0.845223 9.14902 -2.4684
-0.900278 9.18744 -2.50713
-0.34470866666666666 9.834240000000001 -2.8114333333333335
-1.57111 9.24992 -3.18024
-1.03582 9.59372 -3.30007
2.54461 9.11471 -0.301703
3.06205 10.3155 0.273301
3.92078 9.16066 -0.713707
3.97459 9.14505 -0.736452
-0.72926 9.63535 1.16858
-0.682307 9.71546 1.21723
-0.573332 9.81987 1.36748
-0.435936 10.0183 1.71996
-1.0305 10.086366666666667 1.2868566666666665
0.391653 9.43792 1.86961
-0.147021 9.89476 2.60844
-0.247705 9.99875 2.92193
0.34961582995248364 2.6381698929862134 0.15785069261068863
-0.3112808011045225 2.884024974397239 -0.36137702579901065
-0.47046130949403064 3.5805052288030814 -0.47347696506075215
-0.3710460880243014 3.8530541042003303 -0.36806752305412416
0.454779544421998 3.330783390022739 -0.23459566379103447
0.7136765162630014 3.516725549146704 -1.0715249104645506
1.117220702645707 3.284850779313671 -2.261951394799289
1.1597592369933645 3.2015686319228456 -2.381090611650999
-2.951358554514785 3.7589616142626667 0.31141731513264653
3.86022515016 4.434207664472665 1.9587033754259
2.330889231797618 4.608275621986691 2.0083890845629595
-0.44603395158986103 2.9776955135991257 -0.05018464998777113
0.02528806749078554 1.350476970372553 -0.14621688745961609
-0.28141572496500555 3.8671313694598504 -0.5328436304592893
1.0914123756582879 3.265657330613231 -2.2012922335598146
1.1544301922991789 3.212481504698988 -2.364437132392942
-0.7730821831857766 4.022495349431645 0.13175973170192737
-2.1768570893734576 4.087598953215518 0.25432265828906764
-3.170164398570568 3.626511537267094 0.33462969088094685
-3.380078468646045 3.4952685054471786 0.35247872699671406
-3.404368429820953 3.44681421709728 0.361695010287546
-3.4692670983214975 3.401586780533363 0.37640210558635767
3.736334325474182 4.473058157755665 1.9721141768950459
3.8625210271479644 4.424203822315387 1.960112812020655
-0.14304693285372116 0.38608376549957873 -0.11547860485610352
0.06491544647508982 1.1692391983481563 -0.1383271590405722
-0.17529587359539311 1.4684789571546275 -0.10851099915570409
-0.1840858518678583 2.0166810204031034 -0.22393535775146933
-0.3743235402385299 3.4146878468032242 -0.046610269393995374
-0.35962362686833205 3.8607894197553607 0.030063158195369963
-0.6803741219725439 4.613325021352679 0.049286756854816566
0.009426257927026206 2.140308358964097 0.03518812672023795
0.48642503427482453 4.285071602036031 0.5856483409162195
-0.25619662867443527 2.414525038040837 0.06664301109118875
-0.025698164387047064 2.3063611969580875 -0.08678002879444467
-0.23406576538981666 2.3329978452503854 -0.22604077193585867
-0.376421821383826 3.781193043240588 -0.3151942140580599
-0.4140586474098712 4.580465912097822 -0.6714681307700212
0.09811503877631565 2.628678915119548 0.05089319727804092
0.29581088404898725 3.5969604035903973 -0.07961065115947229
0.5026698254162895 3.8866768266319762 -0.11565998240498344
0.5987144176614 4.325241855336947 0.0060714328694912835
0.6671890104681744 3.5203844948411063 -0.9004682331063214
-0.6723881932967233 4.009685532790297 0.15135868294539193
-1.333181238053376 4.196619448800588 0.13931388540432144
-1.7752890548517595 4.170526624355836 0.20614307304026047
-2.0774314934686346 4.122532143702636 0.2573059079433847
-2.344437695850878 3.9785172375272793 0.28046824523499303
-2.508083747855153 3.942404633430436 0.2635724926038428
-2.4167444168002845 3.977705397946314 0.27167805438732723
-2.787581045053968 3.8240687400699485 0.30745782953679013
-2.604827285662679 3.896343656843759 0.2861442203273772
-3.1379243820433818 3.6435668815416546 0.32656075182824096
3.300341400039507 4.61882530163091 1.8260641116181258
0.7327476420805844 4.555402276847074 -3.879656265160299
2.6642713110135072 4.203634827444332 2.533656442239861
-0.009863341777593423 0.36499962874760694 0.18903918732128439
-0.13344298134949079 2.285252505227598 -0.20972373493932728
-0.10663956340837484 2.6077282931255237 -0.09104272296063814
-0.5236828726048233 3.588057191560929 0.005350267243141357
-0.08633293030189586 1.4893794511557275 -0.0960698728482666
0.16318724765502773 1.5873457406861609 -0.0739978468648558
0.17387484816381485 1.7397806618391711 -0.09388397612726844
0.3170415262539769 2.3264925552204803 0.018736262058385494
0.37197690221492224 3.8817814080267383 0.322219303378728
0.4840011641767422 4.4165618211150495 0.45758153986113825
-0.2505580143668062 2.7487793877130056 -0.25997445475944814
-0.4441026623601583 3.916676713266924 -0.3625355610630991
-0.542105452261156 4.320284793492814 -0.5225365310535937
0.0869922331857106 2.569476281059251 0.1712411453894792
0.1870794567395106 2.764537336038882 -0.06626062926751333
0.3745003207042535 4.059726879327921 0.0010572821520931194
0.5273760920914528 3.3304662558021416 -0.3191142609958644
-1.3198498163991397 4.195560428334457 0.17092794124993005
-1.472611899686216 4.198629307298632 0.1691978517420945
-1.4937964324860975 4.16277323815909 0.13999687122049445
-1.6176927569154222 4.225256909399854 0.1715908787506283
-2.676955164120155 3.8737002930686506 0.29391386336472347
-2.6558494308574176 3.875670310553233 0.2916288708405572
-2.7914308879789567 3.803979579802576 0.30470202844901334
-3.3602535352830567 3.5402327963356957 0.3203700651037986
3.2265884745275866 4.643823863779227 1.8686399344292102
4.366514604021032 4.257590994797775 1.9534790016914774
0.7176554361600512 4.637917349574021 -3.822621227489946
0.737389839220016 4.577180144793223 -3.9083408321092636
2.4751191943134714 4.439924549152168 2.2683713637683374
2.55474906307427 4.325055070841556 2.4404779852417877
5.094461301270899E-4 0.3540655753278811 -0.17735852255640833
-0.04714528676068575 0.3291325941191831 -0.18392876442163186
-0.13949223957879095 0.49391873481850046 0.0821935385281502
-0.10580695475170297 0.6055029974203601 -0.12880164991746554
0.13478645133838119 0.6263508025250832 -0.08884417421079749
0.17751298785999797 0.8749345883577199 -0.09756650513184895
-0.1840763155112415 1.776876245355553 -0.18844579573548778
0.053371287182363794 1.776414829310495 -0.11301816734015019
0.056547953338220866 1.774388579388183 0.01708345637129431
-0.34412486466643494 2.434665456699878 -0.1117926596379361
-0.3470140540769676 2.417462238617128 -0.1210592293902185
-0.0911829664062648 2.492956533392381 -0.10134993253974095
-0.39278288354888397 3.1701755699965735 0.15964124945199468
-0.3638268992051834 3.312163231248758 -0.125110712792133
-0.5388290172860115 3.4775725160322435 0.042927304053559
-0.29325117633053055 3.4858321889353374 0.03555450511355615
-0.5986439520434156 4.051549078651216 0.15713836657948782
-0.137033412155258 1.2043262921928988 -0.09086730118161535
-0.1442097657778947 1.2027297308426472 0.050783015059689185
-0.14687137148747748 1.2020976930017124 0.03886844993003443
0.16937749124268198 1.3030255173715142 0.06449466910532939
0.0508501867018344 1.445888311000876 -0.13561511494928336
0.03711777840140595 1.4520844387243934 0.15039743898369182
0.19124560512283317 1.6277386348930065 -0.06926651439232526
0.17088821394321352 1.48675452787255 -0.08839785321565082
0.2017720429258211 2.052905632648753 0.1968722344084855
0.3126040081367969 2.2638267738516036 0.02009258098199271
0.09139026049732124 2.4986140499190954 0.0028187773653864205
0.3476543628573462 2.6186581872687933 -0.006474374978816819
0.35476508534317497 3.0400935903835813 0.1399118111515026
0.44404324715837074 3.001522573096074 0.18171864924238224
0.3230145216226087 3.32086684275201 0.14968001648366727
0.33977850508798324 3.7603461483575837 0.42495747229295666
0.49235650969387945 3.7339946468859693 0.46781416881854765
0.4726423558781269 4.132099813565981 0.37581133375200504
0.36784420989041056 4.131192551351354 0.4755287139451239
-0.25208002654835115 2.7464448092061398 0.06435324348556876
-0.37062913555800153 2.717745015497392 -0.08594675603290826
-0.23923112154229464 2.911114101925911 -0.33734114883327515
-0.38557570014363646 3.3306487286106847 -0.23333565368508427
-0.4050303439585959 3.2809542568746726 -0.42018370298768426
-0.36430194966131696 3.6070019405973297 -0.5241904543209926
-0.5030002638695679 3.7629075002687045 -0.5145216998812719
-0.2930255621312964 4.016538572301984 -0.5168141984076423
-0.4656745090592736 3.9728589024841208 -0.416644178671063
-0.3837679797851325 4.305018282907508 -0.5336030938214003
-0.5085484271596392 4.148292805512627 -0.6343944392398321
-0.6182363516574435 4.421137708939328 -0.5536038815344242
0.33829288614207775 2.6051047799270046 0.17363534829313382
0.3821246693884984 2.6117714484070813 0.027127024513580806
0.15719748157682456 2.916937775029379 0.18383580584166592
0.44405371118424886 3.0606059183350123 -0.007129636538161226
0.3333749996195071 3.18226040825713 0.14003283646152187
0.4408554228805272 3.166409672292688 0.04959262406485082
0.48921830735663485 3.412348850251385 0.08695548178394673
0.43461085438451447 3.5403632520767387 -0.11324364005696601
0.4434425515457959 4.467056290169826 -0.07968178675691599
0.5962277367360997 4.459797699060666 0.04334084358172448
-0.5884422503660048 4.585651975658894 -0.6722303304035547
0.36383826161496297 3.171029361364994 -0.014664564806787224
0.33444753255670445 3.33988714878809 -0.13178729192132618
0.42490791900317665 3.2792918509663975 -0.22702601467639466
0.6194544312993834 3.4138122056640947 -0.5216440039547886
0.6140240771159327 3.4544937368927138 -0.6989020619240438
1.0078398573756389 3.3518142491975507 -1.9819810572117216
1.0420179792954656 3.3093922591263314 -2.0651722343099252
2.5890519470262343 4.265979510405092 2.4536839509624446
3.15722573401906 3.8217301821059 2.9071121487128915
3.2767321208093816 3.744369781902151 2.9966158628621455
0.5225370275885538 4.49689982497695 -3.858457962038856
0.04658585571827248 0.19639008584629677 -0.1817954330829848
0.03562101346908067 0.26742547457447835 -0.19052526884633958
0.06340772274718127 0.23190719875778307 0.17474537172138052
-0.054733033695476906 0.6067233616578441 -0.17285576919401857
-0.16338387931490078 0.7681901159370266 0.07219222259841643
0.05229176341268286 0.8036434528120738 -0.16644052867385567
0.01900787067903978 1.22406912923135 0.16769733089999017
-0.11372675951939723 1.3686227759443907 -0.12440624656125995
-0.18010977258655464 1.3169524897194587 0.028922379933313272
0.023537123932630577 1.6581595668115756 -0.17931732924121882
0.016642330532902365 1.9183961832897596 -0.11293248336031865
-0.21732996558941076 2.162760659030768 -0.21719993061722956
-0.3327746571528135 2.3190748707261135 -0.0974868895243078
-0.2954412711577325 2.7880712936414067 -0.19397493962147422
-0.2664410465159693 2.60906951856563 0.07099492689712039
-0.19221933837260063 2.777603068826887 0.07722171350313135
-0.16934634034893506 2.884395930189824 -0.08661741309379124
-0.4168133075344316 3.0528219465918975 0.12132996788270063
-0.5210943653256865 4.027020807124329 -0.011203872082926435
-0.6488788231843886 4.173626514218378 0.16976516029393265
-0.48031104697632293 4.183012328743723 0.17791968095880667
-0.43463989278706955 4.157156819897183 0.03832054322158367
-0.6825234062102093 4.522146388680025 0.07047664737682395
-0.4958461383905629 4.431771714598555 0.16891821610954505
-0.0413888306317815 1.7384916856551598 -0.05262566608780911
0.0670065500814172 2.4768646849402947 0.14423250460466236
0.1599356336780814 2.7459575412076895 0.03574269820857166
0.17517568983997 2.8685743931721253 0.04025374674623475
0.18290593335276237 2.930373226022609 0.27632040127055246
0.21674520803236796 2.7615247395151568 0.2873694946788618
0.4327511601131934 3.173372615819113 0.15004287707935635
0.35077903732197435 3.312576082050502 0.4026415473332604
0.43736331632673836 3.327400929472454 0.4151669377737513
0.41913115765541525 3.3007577018420027 0.1909002381583825
0.4687162046553618 3.574143668319161 0.4519051722394439
0.46995240031443 4.40319849763185 0.4203777497238481
0.5725855447139516 4.259118514016806 0.6025128394727673
-0.1249063983218272 2.4339695664657843 -0.2118918471066865
-0.28422704445215613 2.4701695357179885 -0.22809296852420272
-0.3615072461362185 2.6858331759028142 -0.07710318317067365
-0.3465538199836078 3.0359349513096086 -0.39611663832104826
-0.24097621274778142 3.3356526559070914 -0.2634164565909217
-0.23591778679256895 3.476568206757472 -0.40665952097557817
-0.4709920912956747 3.45110581189869 -0.2713393188489929
-0.381973804769817 3.5914359648800493 -0.5230195944275592
-0.28203658859720226 3.8888013928080056 -0.5447755936778825
-0.5415668465257536 3.874743778527694 -0.4845954685342069
-0.5406984219365906 3.8535995303981547 -0.4567479288129693
-0.49388306719359065 4.0546391800838135 -0.6228013499652575
-0.509430773129373 4.0246019896104 -0.5980872947610449
-0.37398065412676595 4.308072545435079 -0.664042272895753
0.09776885957449796 2.507368558907544 0.13738592499979857
0.34069045205378673 2.5678220169557955 0.15045156864398385
0.16400978958213103 2.824204804521746 -0.05136242287358862
0.1543215838415911 2.864901933590687 0.1342657701744326
0.39463997112832 2.849750203739955 0.1313844857438287
0.17807248640698584 3.032087001285835 0.04954901785780986
0.47201762329605157 3.3863116959144874 0.10386652207126172
0.4619310080243895 3.299812463488058 0.08744555243752183
0.389622824324973 4.267696796203509 -0.06436720260601221
0.37078552952907595 4.167265595009366 0.01521993070507969
0.40646440315866766 4.203998069444654 0.020898857740097462
0.6034904626106755 4.186166980512789 0.007551330746812629
0.575200019777676 4.162615257835281 -0.09323597138340772
0.4727758689379173 4.600337620127375 -0.09966943829887542
0.48650893998887607 4.593966834589241 -0.0814990700885266
0.5095960499991163 4.5789244184474205 -0.005739379380652739
0.49775618948403716 4.563203705595623 0.006284011818751559
-0.6082026692985499 4.619103058687475 -0.6416000112415725
-0.5625304654892136 4.688467664735139 -0.7765985540036748
0.7872999373078725 3.460725187120062 -1.4156159671669666
0.8512977268176877 3.4486736096800312 -1.6378298913023595
1.1635120124119611 3.20974326213533 -2.4089154780039537
1.0240768721747429 3.3138539280688244 -0.8882429664777921
2.838478983112224 4.001679502999018 2.7667941854319125
2.8416034146492435 4.009898115619824 2.743044876695894
-0.0194414502876573 0.24099130022710166 -0.19637268020081844
0.026683029198816755 0.40454211019697994 0.1858378977649836
0.09163436877617757 0.4754928126459308 -0.16517489990356485
-0.11430022336560429 0.7891393435147654 -0.10507971872114164
-0.15860054092354517 0.8046514028514551 -0.05856421084082761
-0.1578162067929145 0.6738253054345389 -0.07087382576704815
-0.1421214184140618 0.739975410407975 0.0571806564847909
-0.005922885911189831 0.6383387278380326 0.18864881565468586
0.16192385202979973 0.5230518481677736 0.11200300808583163
-0.06361318420328896 1.0772380613521644 0.14337053146005493
0.16266985360861994 1.2074947700690417 0.03497330647211733
0.17458084204625224 1.0466460961006328 0.016236696578880713
0.04721159118660476 1.055017171718456 -0.14660019087565956
0.1657911953074447 1.028069270867536 -0.08464165561371413
0.15520456218459164 1.2719418693983298 -0.03348707015062053
-0.22301553774400143 1.6138782536463037 0.016167057761097434
-0.08859709874440125 1.498115422938953 0.1522757438663318
0.043843097953342 1.5470910824626052 0.11805460364893967
-0.23136888351205176 1.8834846714541245 -0.15174686880273786
-0.25028930228603424 1.8575226945486498 -0.13660569005915368
-0.2529323183584083 1.850353724678508 -0.13600261572835926
-0.19915349727932097 1.7634523364185655 -0.12209129239795936
-0.15092711856133265 1.7706002295560852 -0.19234533853844032
-0.23638381712295284 1.7387537668322555 -0.12001179565235678
-0.05376420041990891 1.7470471189437287 0.1021649440231021
-0.09492595582244531 1.7807488825128903 0.1037338894788892
-0.0013680963426830842 2.028674334385301 0.01812207561964123
0.03736324693869803 1.8630105308439542 -0.17163497454252122
0.028706179100041963 1.8930118076851403 -0.1862861825314581
0.033012812378077155 2.0198925124633886 -0.10879720375350331
0.047852201471827054 1.796782508294968 -0.10604063123498154
0.04961948711669177 1.8049957901573528 -0.13119453011055277
0.008333825667655434 2.18149126798662 -0.06555859361345283
0.010668375396081757 2.1118985852848566 -0.042325367728024886
-0.09507421857966339 2.0321355928317812 -0.20850039464269537
-0.04223225587021888 2.197848471258431 -0.1351127955550422
-0.36109310682690693 2.491547531508295 -0.12191250249945122
-0.27991461162071357 2.349730809718878 -0.20523936972593596
-0.2896747524102905 2.412714981241917 0.026539433937908176
-0.2536810584875271 2.3377392020284606 0.07842016586381112
-0.06452132589895988 2.4872967542064974 -0.1085174994132335
-0.08921666463265611 2.472649119342844 -0.06265416435596072
-0.1821160723774522 2.520259100995222 -0.2002674886958519
-0.12569344959102477 2.4221721623932413 -0.20900824371938811
-0.2442446073507167 2.733130599039014 -0.21345120800222578
-0.34395687084484416 2.6195312587962185 0.05316806820946462
-0.38328294692388837 2.6553470615057173 -0.09504757393377064
-0.3475139842973072 2.6781317784014527 0.018476594844816955
-0.21312542354882072 2.7489866833912604 0.10003454249230764
-0.15557812062400087 2.7920707082533087 0.024222395229387225
-0.18141061782769816 2.6940260549770394 -0.1948213000209859
-0.37016014131627967 3.0222487332795067 -0.13320406185558017
-0.4031610172200303 2.8703700868173083 0.013438171388411684
-0.3632029817756102 2.9241833620832387 0.1345831382793953
-0.36138808789769644 3.2770200857548093 -0.1057509966493666
-0.37002745298721584 3.1536214282976696 -0.1268442855079716
-0.4904353437950386 3.448696516033499 -0.04089323943005191
-0.3950594889986966 3.4696563678579584 0.16291491907892708
-0.3997683863981529 3.612057437351302 0.16911960197411782
-0.6441444832464897 4.405493234905797 0.05865517976954428
-0.6712049320613716 4.421787872952182 0.1713596912560816
-0.6631807075791342 4.300981282462183 0.2100230837910205
-0.45672003736778854 4.379718764740775 0.14342707468421492
-0.6555059503390975 4.620260469717882 0.06054346217518533
-0.7550522903738655 4.617664222493652 0.13231170132299375
-0.15426911849106395 1.305557974918308 -0.0444336669327391
-0.13298178399051583 1.3617449901543417 0.0787123363993019
-0.04708861788273991 1.2390373059544761 0.17436913025062584
0.14222659964903056 1.2028100619226676 -0.06670278705360845
0.18243673217450096 1.3568094897460128 -0.08467703829281997
-0.12037364146272214 1.5112831262726614 -0.0327716089176541
-0.12006397693438298 1.624870807803284 0.0781667061058797
-0.03912612307682058 1.6027987627617781 0.12753455757915225
0.14870304798603928 1.4922579721949094 0.16560580476129494
0.17432266846879557 1.5102335303199776 0.025537286981573915
0.04481316935037506 1.9387315069907443 -0.09917268721194251
0.0683847634418603 1.895445316452168 0.1670956962191533
0.27906091555458434 1.9448081766231786 0.007470602976039762
0.19361830232904834 1.7252167882289888 -0.08635387262156047
0.10486245629060237 2.200484172826725 -0.08455843317494037
0.05273103852395963 2.0521750566574495 0.1436921831513142
0.07022638715085681 2.090414881953018 0.19373257178920594
-0.003259895471828138 2.025692217573365 0.16198472773769657
0.24309933255544125 2.059386744765955 0.1833387093013576
0.32474484898731926 2.246551371766766 0.11383547300367962
0.2741524393730282 2.056745093126427 0.02478957233109977
0.19415428532519677 2.366879161169603 -0.06552544641369135
0.19627279395335992 2.439939032170835 -0.049877100721709006
0.19118689030253505 2.353245831129205 -0.04912383967313308
0.05991043384865439 2.443154494540949 0.022642623513109476
0.14886170721138786 2.5154102016971986 0.0031773912443865404
0.18576539327606226 2.374184963894249 0.21511472508480955
0.30891360811231766 2.353264571841473 0.17786435524049124
0.29359997176813296 2.326535344472463 0.17623088378264987
0.28210641841983564 2.5849728672094074 -0.0020294050216918364
0.33371258996191816 2.43347502619193 0.014870131425371738
0.246937250354033 2.68939293587439 -0.0024159644350531502
0.15602386496851672 2.6285020134898036 0.20114397263275421
0.35503311257184283 2.754729632421363 0.1790064949868582
0.18572445937393825 3.0774838999348137 0.28271272405958586
0.3444386226589974 2.9149519468819745 0.3115258463215391
0.40922966767153246 2.894910084313629 0.14992282299676282
0.40518221114626046 2.9140904827530947 0.10191560731693024
0.2820400744418268 3.3572926110741297 0.15651043146609483
0.2561562488914729 3.246807908941803 0.16951590815317633
0.2696199218721486 3.2999889207984285 0.17168135815098176
0.20107653541925363 3.208907932543362 0.16337861408917273
0.25462214741847816 3.3276079551295115 0.1777748463982124
0.2802270682942411 3.2822339744247735 0.13785546321623096
0.304845271262777 3.253493854469509 0.4116321940025881
0.31963413284275044 3.2178728606510596 0.3789148490444476
0.46818811426390033 3.2046026708018758 0.3185803350109629
0.44770067602769376 3.2411119516379836 0.3503862259926482
0.3838637272294504 3.279952885613836 0.16636734617656396
0.27354137581428 3.5692556158352997 0.305029229904187
0.26665711596130576 3.569210254271445 0.28519796613573845
0.24769900578690368 3.4314627959096047 0.32581466784768076
0.2594899859529439 3.4442037007096373 0.34602369587155085
0.4688424121652632 3.449977952504976 0.42224014349826894
0.5094516023809298 3.579393584507778 0.3202496624341776
0.5050683294133534 3.6509591060809874 0.3111785778884396
0.4864558670405028 4.28079365856634 0.38644148837748155
0.40600994843811006 4.369239711651766 0.5123247794014423
0.43981738143026194 4.357199267024766 0.5498880997549715
0.5021327234882719 4.254681025649278 0.6270099304852557
0.4655612779164596 4.281118052296782 0.5875099536190004
0.5854924403973083 4.335058208304609 0.45067624474590107
0.6335714077915802 4.256871078395003 0.47574853710262616
0.5973032308496664 4.233248184186436 0.5159924130579387
0.46287135419981296 4.550709385010832 0.6389002250526564
0.5933019665591756 4.641209627438633 0.6575580490606108
0.5373983643371714 4.546941457289165 0.6664056659793628
-0.07785713487915846 2.4582535511971644 -0.011630791137255597
-0.11895500137247433 2.3150299985518052 0.054006610522762996
-0.10931799064034044 2.4384841455083244 -0.23189684442751599
-0.31947427264039024 2.4318328929340276 -0.2009026402582838
-0.22571207391241405 2.7689941947440326 -0.08299776609797332
-0.3196820429084417 2.730740929937094 -0.04379180036689647
-0.31834972062899164 2.7248561347222924 -0.039049726298821696
