ply
format ascii 1.0
comment VCGLIB generated
element vertex 1838
property float x
property float y
property float z
element face 0
property list uchar int vertex_indices
end_header
0.189727 20.4023 0.224495
0.227726 20.4843 0.14234
0.187376 19.9321 0.277977
0.239652 19.9308 0.176835
0.200163 19.9737 -0.348858
0.210523 20.0574 -0.329825
0.216252 20.0854 -0.319932
0.241601 20.3086 -0.272726
0.307437 20.2012 -0.173912
0.286718 20.0337 -0.211979
0.342285 20.7021 -0.102293
0.300848 20.3672 -0.178426
0.328156 20.3686 -0.135846
0.339138 20.092 -0.128323
0.352792 20.0927 -0.107034
0.352792 20.0927 -0.107034
0.308298 20.0071 -0.179291
0.307199 20.0348 -0.180044
0.308298 20.0071 -0.179291
0.311592 19.9241 -0.177035
0.309396 19.9795 -0.178539
0.362053 20.2041 -0.0887527
-0.176887 21.9025 -0.431512
-0.0430053 22.1576 -0.438636
-0.0488854 21.9368 -0.437639
0.0398137 22.1279 -0.44243
-0.0589313 21.8735 -0.436961
-0.0472191 21.8738 -0.437512
0.051574 22.5695 -0.444424
0.041528 22.5062 -0.443745
-0.0028215 22.4107 -0.441349
0.0456938 22.3487 -0.443427
0.0691183 22.3492 -0.44453
0.073236 21.7503 -0.442769
0.0606906 21.7815 -0.442282
0.0715697 21.8133 -0.442897
0.0230544 21.8753 -0.440819
-0.0120823 21.8745 -0.439165
-0.00874972 21.7485 -0.438911
0.0682371 21.9393 -0.443151
-0.447313 22.5957 -0.11791
-0.44177 22.5641 -0.127834
-0.386337 22.2483 -0.227071
-0.402807 22.3116 -0.196805
-0.379677 21.9963 -0.23353
-0.378559 21.7759 -0.230065
-0.422905 22.0286 -0.150674
-0.325042 21.8379 -0.335243
-0.325042 21.8379 -0.335243
-0.443482 21.8401 -0.106029
-0.383464 21.6816 -0.218161
-0.388688 21.6502 -0.207247
-0.274915 22.475 0.170617
-0.329036 22.2528 0.0879747
-0.302911 22.1916 0.129207
-0.259421 22.2567 0.196519
-0.278407 22.2556 0.166916
-0.344374 21.9701 0.0663003
-0.331312 21.9396 0.0869164
-0.343564 21.9076 0.0680621
-0.410342 21.6847 -0.0343152
-0.370094 22 0.0259488
-0.292935 21.9104 0.147003
-0.310705 21.8155 0.120043
0.028387 22.3553 0.190463
0.028387 22.3553 0.190463
-0.0150025 22.2295 0.196101
0.0101517 22.1676 0.196715
0.10212 22.232 0.190589
0.0795604 22.2003 0.192549
0.111238 22.3259 0.187463
-0.0549325 21.9789 0.205171
0.0604603 22.0438 0.197943
-0.222832 21.6942 0.221163
-0.175983 21.6953 0.218959
-0.191155 21.8198 0.216077
-0.0991869 21.8842 0.209951
-0.145171 21.852 0.213014
-0.118287 21.7277 0.215344
-0.0766273 21.916 0.20799
0.113363 21.8264 0.201745
0.0296479 21.887 0.203887
0.110769 21.92 0.199171
0.109904 21.9512 0.198313
0.0179356 21.8868 0.204439
0.209678 22.0746 0.0172087
0.216792 22.0121 0.00850631
0.158437 21.982 0.123971
0.115086 22.5753 0.15976
0.130848 22.2008 0.159639
0.158825 22.3562 0.0928356
0.151129 21.8574 0.148242
0.12354 22.0762 0.18391
0.129724 21.6893 -0.394792
0.138066 21.8153 -0.376855
0.218037 22.0707 -0.242305
0.197182 21.7558 -0.287148
0.201353 21.8188 -0.278179
0.261114 22.2927 -0.166511
0.217892 22.2589 -0.235134
0.288874 21.855 -0.140482
0.286717 21.9177 -0.141381
0.285638 21.949 -0.14183
-0.27845 23.4175 -0.418662
-0.164865 23.0401 -0.429283
-0.152995 22.8191 -0.432925
-0.210052 23.1026 -0.42628
-0.0514566 22.7259 -0.439015
-0.0970845 22.9464 -0.433788
-0.186841 22.8502 -0.430895
-0.186929 22.8818 -0.43045
-0.427168 22.6588 -0.158532
-0.386339 22.8485 -0.235945
-0.380905 22.7537 -0.247289
-0.396326 22.7221 -0.217704
-0.324744 23.0066 -0.353844
-0.365396 22.7538 -0.27732
-0.365572 22.8169 -0.276431
-0.344982 22.8486 -0.316027
-0.3053 23.4489 -0.387658
-0.315727 23.4805 -0.367193
-0.325273 23.1961 -0.351175
-0.289614 23.3858 -0.418578
-0.341135 23.3225 -0.319366
-0.29302 22.7539 -0.417463
-0.314052 22.8803 -0.375643
-0.324391 22.8802 -0.355623
-0.29399 23.1014 -0.412571
-0.348232 23.0078 0.0530867
-0.402979 23.0064 -0.0322488
-0.378896 22.944 0.00560928
-0.372938 22.9127 0.0150566
-0.431895 23.3834 -0.0792445
-0.389564 23.3215 -0.0129413
-0.421977 22.817 -0.0609004
-0.434018 22.8482 -0.0798294
-0.433643 22.9426 -0.0797262
0.0449713 22.7935 0.179248
-0.0670658 22.6666 0.18595
-0.0336749 22.761 0.183302
-0.135438 22.8847 0.186641
-0.228029 23.5407 0.18343
-0.182162 23.3222 0.183795
-0.193659 23.3847 0.183615
-0.114401 23.2606 0.181333
-0.224848 22.7268 0.19264
-0.202832 22.8524 0.190166
0.225392 23.296 -0.0906987
0.225392 23.296 -0.0906987
0.209088 23.3273 -0.0605906
0.243288 23.202 -0.120962
0.177674 23.1392 0.00901472
0.208296 22.9513 -0.0415018
0.197561 22.7633 -0.0119371
0.201139 22.826 -0.021792
0.111268 22.7005 0.15808
0.176087 22.7946 0.0281812
0.202731 22.7633 -0.0219473
0.197561 22.7633 -0.0119371
0.204322 22.7007 -0.0221025
0.219035 22.7321 -0.0520553
0.209492 22.7007 -0.0321127
0.093042 23.2325 -0.389915
0.112936 23.1385 -0.362869
0.096881 23.012 -0.393179
0.248905 22.669 -0.170747
0.21131 22.7311 -0.226705
0.175361 22.6987 -0.284061
0.182043 23.0141 -0.260435
0.0830196 22.7594 -0.425355
0.0891026 22.7595 -0.415873
0.0852635 22.9801 -0.412609
-0.273168 26.2798 -0.354681
-0.232555 26.1554 -0.358071
-0.262164 26.155 -0.356682
-0.161483 25.9377 -0.364004
-0.281053 26.0611 -0.356909
-0.28162 26.1236 -0.35614
-0.250594 25.9678 -0.359451
-0.141177 25.8755 -0.365699
-0.1612 25.9065 -0.364388
-0.147929 25.5319 -0.369464
-0.12819 25.5321 -0.37039
-0.24946 25.8429 -0.360989
-0.049232 25.5331 -0.374095
-0.118037 25.501 -0.371238
-0.21645 25.4686 -0.366991
-0.248894 25.7805 -0.361758
-0.277653 25.6864 -0.361522
-0.278503 25.7801 -0.360369
-0.394899 25.5273 -0.152274
-0.354385 25.5596 -0.230905
-0.303389 25.9357 -0.331645
-0.339937 25.966 -0.261025
-0.308771 25.5296 -0.319084
-0.335685 25.4976 -0.266791
-0.275698 25.4956 0.157929
-0.329283 25.5894 0.0746887
-0.345293 25.5894 0.0497398
-0.356697 25.9025 0.0328487
-0.426949 26.2781 -0.0755735
-0.426365 26.0276 -0.0753667
-0.410355 26.0277 -0.0504178
-0.426511 26.0902 -0.0754184
-0.414815 25.6519 -0.058424
0.00531291 25.5937 0.168354
-0.0946863 25.7184 0.171327
-0.103905 25.6553 0.172619
-0.0930588 25.561 0.1734
-0.217354 26.1263 0.171497
-0.211821 25.591 0.178542
-0.254229 25.8739 0.176665
0.173306 26.0388 -0.0949423
0.140498 25.7858 -0.0160661
0.147028 25.7229 -0.0248801
0.12636 25.6594 0.0189823
0.181834 25.913 -0.103791
0.0643564 25.4687 0.15057
0.0734226 25.4689 0.133011
0.0739607 25.595 0.124301
0.116295 25.6906 0.0365584
0.0900956 25.6584 0.0892175
0.115219 25.4384 0.0539787
0.0970868 25.438 0.0890963
0.0804362 26.0356 -0.271443
0.0787183 25.6597 -0.292948
0.151826 25.5032 -0.186865
0.132085 25.6598 -0.209784
-0.0962051 26.9418 -0.363553
-0.104472 26.9103 -0.363014
-0.147234 26.5331 -0.359191
-0.0218027 27.2257 -0.368407
-0.0619974 27.0367 -0.365613
-0.111311 27.0982 -0.363601
-0.0802464 26.5033 -0.362184
-0.0152508 26.787 -0.366596
-0.0517383 26.7548 -0.364732
-0.43286 27.0295 -0.11081
-0.41896 26.967 -0.13486
-0.383446 26.9046 -0.200755
-0.36675 26.6543 -0.22163
-0.409382 26.9044 -0.15054
-0.298647 26.4357 -0.343464
-0.325981 26.5294 -0.294836
-0.349459 26.6544 -0.255106
-0.350985 26.4666 -0.243563
-0.346663 26.4666 -0.251932
-0.420486 26.7791 -0.123316
-0.432989 26.7477 -0.0976791
-0.393747 26.4349 -0.159342
-0.314142 27.0371 0.104619
-0.314142 27.0371 0.104619
-0.358459 26.9725 0.0351101
-0.346131 26.8785 0.0537259
-0.35198 26.6894 0.0433912
-0.339652 26.5954 0.062007
-0.339652 26.5954 0.062007
-0.301094 26.9116 0.124155
-0.308382 26.7854 0.11198
-0.401382 26.6247 -0.0340457
-0.380325 26.5939 -0.00141472
-0.376681 26.657 0.00467275
-0.391213 26.625 -0.0181903
-0.362193 26.4687 0.0260489
-0.378165 26.4996 0.00134566
-0.359224 26.7836 0.0327031
-0.28809 26.5658 0.142204
-0.0631977 27.2029 0.137031
-0.0220189 27.1092 0.137965
-0.111352 26.9808 0.14598
0.000346094 27.015 0.139782
-0.115961 26.6019 0.157662
-0.0219555 26.8566 0.145606
-0.0301786 26.8249 0.146947
-0.130039 26.4753 0.162145
-0.144244 26.8538 0.151346
0.000472906 26.5099 0.155064
-0.00426222 26.636 0.151464
-0.0583357 26.5717 0.155913
-0.0771494 26.5712 0.156796
0.137945 26.4798 -0.0545914
0.124565 26.6059 -0.0414527
0.126932 26.5428 -0.0396528
0.100171 26.795 -0.0133755
0.0545763 26.8578 0.0685168
0.0416082 26.8577 0.0936245
0.0770147 26.6055 0.0506087
0.0144346 27.2361 0.107933
0.0423795 26.9523 0.0825555
0.014847 27.1099 0.119902
0.0561191 27.0471 0.0463788
0.0860726 26.4794 0.0458392
0.0310076 26.7945 0.120532
0.0431869 26.5385 -0.304007
0.0394965 26.5069 -0.311446
0.0533552 26.5389 -0.288152
0.0634444 26.886 -0.25389
0.0750065 26.8549 -0.237546
0.121667 26.9512 -0.159735
0.101742 27.1711 -0.179013
0.149954 26.5424 -0.137526
0.148972 26.7945 -0.125581
-0.348988 29.232 -0.386161
-0.259501 29.6124 -0.396779
-0.251506 29.204 -0.390223
-0.179293 29.6152 -0.40056
-0.224351 29.3307 -0.393637
-0.164458 30.0559 -0.408725
-0.180499 30.0553 -0.407969
-0.174968 29.7097 -0.402364
-0.225557 29.7708 -0.401045
-0.157721 29.2702 -0.395712
-0.139818 29.428 -0.399222
-0.153999 29.5847 -0.401219
-0.478125 29.9888 -0.228866
-0.498024 29.8634 -0.182411
-0.409527 29.4523 -0.327595
-0.434801 29.4214 -0.276732
-0.48222 29.391 -0.183049
-0.366704 29.81 0.035477
-0.378886 29.7776 0.016497
-0.377271 29.7148 0.0190867
-0.379179 29.6204 0.0162129
-0.37815 29.2432 0.0182345
-0.38138 29.3687 0.0130551
-0.382995 29.4314 0.0104654
-0.151667 30.0352 0.0160713
-0.177422 29.8778 0.023938
-0.163911 29.9409 0.0206401
-0.190932 29.8147 0.027236
-0.203177 29.7203 0.0318047
-0.140276 29.7538 0.0275087
-0.211624 29.5321 0.0401859
-0.161807 29.6905 0.0311848
-0.238645 29.4059 0.0467818
-0.269036 29.5614 0.0415622
-0.261015 29.5617 0.041184
-0.184192 29.2513 0.0508669
0.0184506 29.2519 -0.174521
-0.00495972 29.2837 -0.132974
-0.0346982 29.4717 -0.0977802
-0.0680213 29.5662 -0.0445014
-0.0581085 29.5035 -0.0562326
-0.107885 30.0044 -0.0194743
-0.0979719 29.9417 -0.0312055
-0.111363 29.8171 0.00955975
-0.098601 29.4107 0.0332167
-0.0778683 29.4318 -0.328338
-0.0648783 29.4329 -0.308063
-0.0849467 29.3056 -0.345169
-0.0723716 29.6835 -0.308192
-0.0704788 29.2754 -0.324033
-0.0273863 29.4675 -0.248099
-0.0360463 29.4668 -0.261616
-0.0261158 29.6246 -0.238888
-0.0176632 29.8138 -0.21702
-0.0105848 29.94 -0.200189
0.00450537 29.3446 -0.204106
-0.041543 29.2151 -0.281761
-0.00436206 29.5322 -0.209272
-0.0115442 29.5002 -0.221927
-0.386928 30.7436 -0.404612
-0.207836 30.2436 -0.409577
-0.20848 30.3066 -0.409974
-0.268981 30.3052 -0.407141
-0.248869 30.5578 -0.409794
-0.360054 30.3345 -0.40309
-0.36102 30.429 -0.403686
-0.359732 30.303 -0.402891
-0.361986 30.5235 -0.404283
-0.483542 30.2093 -0.23236
-0.474716 30.3666 -0.253534
-0.463637 30.3034 -0.273316
-0.457002 30.3348 -0.286968
-0.446952 30.7126 -0.316259
-0.432394 30.6493 -0.342768
-0.415323 30.6804 -0.376599
-0.426081 30.7122 -0.356619
-0.443088 30.3345 -0.313874
-0.422022 30.9956 -0.371861
-0.436131 30.3343 -0.327327
-0.435809 30.3028 -0.327128
-0.426017 30.3656 -0.347705
-0.385478 30.2488 0.00529044
-0.414616 30.4046 -0.0423601
-0.422565 30.3411 -0.0538876
-0.41859 30.3728 -0.0481238
-0.43989 30.6235 -0.0848555
-0.448278 30.686 -0.0988177
-0.472563 30.6215 -0.135835
-0.464175 30.559 -0.121873
-0.463955 30.496 -0.120655
-0.505455 30.6825 -0.188032
-0.485474 30.8097 -0.158604
-0.506334 30.9345 -0.192901
-0.491664 30.2423 -0.160393
-0.491664 30.2423 -0.160393
-0.483716 30.3058 -0.148865
-0.48791 30.337 -0.155847
-0.505125 30.588 -0.186206
-0.496737 30.5255 -0.172244
-0.157886 30.2232 0.00837437
-0.252922 30.5976 0.000680125
-0.241431 30.2525 0.0112744
-0.234583 30.3155 0.00892969
-0.268404 30.6287 0.000393062
-0.259413 30.5033 0.00402019
-0.275252 30.5657 0.00273781
-0.343672 30.5954 0.00492962
-0.264833 30.3148 0.0103462
-0.346886 30.8779 -0.00402819
-0.331047 30.8155 -0.00274581
-0.385413 30.9398 -0.00424819
-0.327476 30.5016 0.00720731
-0.0658714 30.4413 -0.144607
-0.103499 30.3169 -0.06164
-0.109035 30.3796 -0.0560377
-0.0936994 30.4419 -0.0907947
-0.0484789 30.441 -0.17824
-0.0721924 30.3163 -0.122179
-0.167507 31.062 -0.40385
-0.151347 30.9057 -0.383855
-0.131104 30.7497 -0.357488
-0.108516 30.4994 -0.330594
-0.108516 30.4994 -0.330594
-0.101306 30.374 -0.32352
-0.155181 30.4021 -0.406537
-0.138844 30.4031 -0.381047
-0.132239 30.4665 -0.368653
-0.00720937 9.76898 -0.055436
0.0199009 9.7281 0.0109424
0.197044 9.53826 -0.275029
0.223259 9.56681 -0.222752
0.187664 9.60078 -0.174919
0.178185 9.50842 -0.261621
0.123116 9.56252 -0.194548
0.327651 9.44508 -0.350502
0.350678 9.41285 -0.356443
0.331593 9.44148 -0.343192
0.279226 9.38769 -0.33627
0.349233 9.32422 -0.448125
0.349147 9.32783 -0.451906
0.446012 9.29518 -0.509188
0.472546 9.23168 -0.487577
0.441111 9.21809 -0.50347
0.448268 9.21813 -0.496857
0.664523 9.0348 -0.770508
0.664023 9.0688 -0.738958
0.666009 9.02814 -0.698641
0.609188 9.06043 -0.655467
0.608063 9.04863 -0.709479
0.835539 8.87358 -0.941942
1.0165 8.70607 -1.06005
1.25949 8.51258 -1.30796
1.16387 8.55083 -1.24517
1.09156 8.61018 -1.17945
1.34101 8.41866 -1.45846
1.40455 8.38362 -1.49329
1.38648 8.39767 -1.46068
1.7582 8.00397 -1.94772
1.83925 7.95463 -2.01356
1.79989 7.9849 -1.95451
1.8632 7.92027 -2.02426
1.76441 7.98775 -1.92946
1.75458 7.99815 -1.94648
1.97007 7.84018 -2.16213
1.94521 7.85745 -2.13891
1.95748 7.86002 -2.12851
1.93354 7.87503 -2.10289
1.99427 7.80739 -2.17437
2.57273 7.46804 -2.68296
-0.193356 10.7735 0.0423616
-0.134278 10.8217 0.00307725
-0.0708449 10.87 0.0110247
-0.16397 10.7927 -0.0188609
-0.0782375 10.7451 -0.0163156
-0.441766 10.5824 0.0189425
-0.348713 10.649 -0.000320875
-0.658197 10.4137 0.0524602
-0.542819 10.3946 0.0539133
-0.689837 10.3277 0.105083
-0.584588 10.3872 0.0873093
-0.529216 10.4483 0.092459
-0.877749 10.222 0.112241
-0.946409 10.1551 0.0397252
-0.739319 10.2513 0.0478239
-1.17953 10.0353 0.0980396
-1.31964 9.93777 0.13512
-1.2845 9.96215 0.127188
-1.1051 10.0767 0.0716436
-1.15187 9.99095 0.0697835
-1.08534 10.0463 0.0588095
-1.21026 9.92766 0.11563
-1.48286 9.8306 0.140505
-1.51545 9.80997 0.132577
-1.34768 9.89596 0.0848424
-1.513 9.80302 0.104691
-1.54476 9.71478 0.143173
-1.55966 9.74142 0.167902
-1.66767 9.69812 0.163959
-1.61454 9.6786 0.114967
-1.70755 9.61653 0.155753
-1.67457 9.63601 0.157714
-1.68396 9.65253 0.16994
-1.67832 9.64261 0.162604
-1.94054 9.54199 0.177641
-2.15817 9.4044 0.209031
-2.28474 9.27507 0.205341
-2.57715 9.14588 0.283089
-2.44954 9.22441 0.256681
-2.46163 9.17137 0.261222
-2.43417 9.2006 0.26173
-2.73293 9.04272 0.320034
-2.74023 9.05044 0.307084
-3.0397 8.86867 0.353001
-3.07308 8.84043 0.359444
-3.0719 8.83867 0.360534
-3.3414 8.7171 0.432639
-3.5365 8.62714 0.457421
-3.4604 8.66269 0.433653
-3.25598 8.73363 0.40816
-3.74711 8.52702 0.475251
-3.61054 8.59216 0.458017
-3.64269 8.57026 0.4587
-3.88468 8.46486 0.495227
-3.95198 8.43271 0.513898
-4.1706 8.35271 0.5382
-4.32846 8.28484 0.560409
-4.17007 8.3507 0.535963
-4.24913 8.31716 0.547321
-4.40738 8.25048 0.57029
-4.32783 8.28369 0.561593
1.41305 10.8289 1.0626
1.41182 10.8122 1.04739
1.47579 10.7609 1.10113
1.43562 10.7292 1.1194
1.73358 10.5707 1.32738
1.76351 10.5642 1.37422
1.64945 10.5738 1.3434
2.64995 9.91822 2.04119
2.67451 9.90213 2.08871
2.54713 9.95514 2.02723
2.5078 9.9622 1.99185
2.52892 9.96037 1.9601
2.8969 9.75814 2.22026
2.88811 9.76308 2.23586
2.86742 9.73696 2.2413
2.79695 9.77831 2.18764
2.77836 9.79331 2.13223
3.64913 9.30058 3.00176
3.64548 9.30628 3.00652
3.68732 9.27768 3.09143
3.76186 9.22458 3.2071
3.64401 9.28709 3.00021
3.84957 9.19697 3.32333
3.94489 9.14887 3.48955
3.87007 9.18785 3.3678
3.93992 9.14149 3.49035
3.93901 9.14163 3.49096
-0.552822 10.5763 -3.65143
-0.539859 10.5817 -3.65664
-0.509235 10.5563 -3.64508
-0.463371 9.83061 -4.87782
-0.434635 9.78315 -4.96467
-0.507973 9.89871 -4.74618
-0.492856 9.87652 -4.79028
-0.445123 9.82173 -4.86782
-0.414523 9.74809 -4.99999
-0.426738 9.77173 -4.95605
-0.274212 9.54632 -5.39475
-0.37577 9.71257 -5.08945
-0.282368 9.57524 -5.35164
-0.32905 9.63827 -5.21749
-0.371563 9.67852 -5.13108
1.31588 14.237 -0.35217
1.31388 14.2369 -0.360634
1.30787 14.2368 -0.386025
1.32703 14.1857 -0.326648
1.2729 14.2243 -0.313934
1.29512 14.1958 -0.312373
1.14727 14.339 -0.297985
1.15219 14.2298 -0.300778
1.24125 14.1812 -0.315071
1.2168 14.2036 -0.307121
1.28403 14.1805 -0.311872
1.39491 14.1064 -0.335708
1.12686 14.3023 -0.270545
1.12686 14.3023 -0.270545
1.05951 14.2753 -0.292309
1.30028 14.1175 -0.422637
1.68357 13.9167 -0.508543
1.89186 13.7568 -0.548893
1.78306 13.8309 -0.531706
1.63678 14.005 -0.432315
1.73862 13.9296 -0.477468
1.87155 13.8359 -0.507348
1.76219 13.9105 -0.497611
1.70736 13.8222 -0.467405
1.73047 13.8035 -0.49157
1.67756 13.8402 -0.474722
1.65111 13.8586 -0.466298
1.69465 13.8751 -0.512985
1.48933 13.9765 -0.458495
1.6585 13.8766 -0.494041
1.53444 13.9919 -0.492087
-1.21799 15.3767 -0.596565
-1.34327 15.2729 -0.654733
-1.16104 15.3944 -0.551287
-1.21324 15.3602 -0.58128
-1.42289 15.2443 -0.727922
-1.29758 15.3391 -0.657813
-1.2721 15.3581 -0.644613
-1.15408 15.3564 -0.691521
-1.21752 15.3317 -0.713134
-1.18742 15.3927 -0.679977
-1.21308 15.3738 -0.692882
-1.29309 15.3201 -0.73055
-1.44183 15.0679 -0.805278
-1.39146 15.1118 -0.7851
-1.18333 15.264 -0.682989
-1.36238 15.1425 -0.70255
-1.3063 15.1797 -0.683882
-1.35821 15.1425 -0.710763
-1.08201 15.3286 -0.609209
-1.15559 15.3327 -0.561972
-1.20547 15.3403 -0.567044
-1.72677 14.9996 -0.85003
-1.77807 14.9647 -0.875581
-1.67227 15.0219 -0.813322
-1.66415 15.061 -0.885053
-1.60022 15.1141 -0.821636
-1.56877 15.1317 -0.820827
-1.57067 15.1318 -0.817015
-1.67175 15.0611 -0.869805
-1.55166 15.1316 -0.855134
-1.54467 15.1255 -0.860955
-1.58328 15.0749 -0.890486
-1.6165 15.0181 -0.922062
-1.55129 15.0162 -0.872534
-1.53072 15.0553 -0.879604
-1.57506 14.9896 -0.876623
-1.50935 15.0321 -0.800387
-1.67926 14.9113 -0.914273
-1.7316 14.8767 -0.939188
-1.49985 15.0321 -0.819446
-1.78672 14.8632 -0.896554
-1.55843 15.0245 -0.779848
-2.72226 14.3565 -1.34036
-2.6815 14.3103 -1.36429
-2.87371 14.1955 -1.51535
-2.70992 14.3344 -1.33934
-2.90275 14.2012 -1.47407
-3.32658 14.0269 -1.76314
-3.13102 14.1289 -1.60776
-3.19262 14.0231 -1.69299
-3.14344 14.0511 -1.65637
-3.31466 13.9857 -1.74788
-3.12281 14.1042 -1.59906
0.450851 16.3617 0.933078
0.325121 16.5149 0.668532
0.337352 16.4993 0.694833
0.500949 16.2614 1.14293
0.486019 16.3007 1.08537
0.524091 16.0361 1.55508
0.504101 16.0752 1.49999
0.502298 16.1136 1.43857
0.434174 16.308 1.15202
0.395773 16.2926 1.15301
0.434016 16.1671 1.31956
0.42445 16.2123 1.26545
0.377145 16.2136 1.10167
0.365087 16.2434 1.08217
0.364864 16.2453 1.12856
0.480538 16.223 1.07668
0.510793 16.0899 1.24642
0.620283 15.9254 1.67596
0.642957 15.8503 1.75
0.674796 15.7348 1.92234
0.553519 15.9646 1.67099
0.561757 15.997 1.60681
0.574969 15.9626 1.66528
0.649609 15.7898 1.95533
0.618895 15.859 1.83954
0.618381 15.9089 1.7467
0.501113 15.9236 1.65555
0.503171 15.9039 1.68378
0.526997 15.8202 1.75293
0.495991 15.9228 1.57509
0.5324 15.8063 1.74323
0.503175 15.8968 1.64003
0.4924 15.9359 1.54262
0.572991 15.7913 1.72858
0.540822 15.8917 1.54696
0.593728 15.8219 1.65966
0.720097 15.2659 3.01741
0.715182 15.2978 2.95603
0.73101 15.1991 3.1388
0.729094 15.2136 3.10743
0.728262 15.2253 3.0747
0.725263 15.2427 3.04469
0.749004 15.0947 3.31885
0.745173 15.1237 3.25611
0.723849 15.2747 2.94513
0.732595 15.2137 3.06925
0.690064 15.3151 2.96537
0.64829 15.1821 3.06076
0.717661 15.0572 3.30406
0.695821 15.1164 3.17978
0.683895 15.174 3.05423
0.642227 15.2365 2.93249
0.678579 15.2306 2.92783
0.753919 15.0627 3.38022
0.730625 15.2201 3.03421
0.71155 15.2495 2.93447
0.799805 14.8752 3.82782
0.763332 15.0153 3.51136
0.771201 14.9857 3.57385
0.751263 14.9477 3.71469
0.735815 14.9808 3.65444
0.704 14.936 3.67551
0.702787 14.9985 3.58887
0.680464 15.0066 3.47792
0.668736 15.0402 3.45652
0.732948 14.8792 3.68243
0.689843 14.9893 3.46812
0.702577 15.0024 3.43412
0.699638 15.0028 3.43464
0.758379 15.0306 3.44154
0.76912 14.9408 3.59047
0.735161 14.9856 3.46089
0.954987 14.2155 5.08818
0.960494 14.321 4.83079
0.958113 14.3423 4.80282
0.953203 14.3553 4.80954
0.953129 14.3405 4.84088
0.936233 14.3448 4.84375
0.947558 14.343 4.84207
0.92441 14.2729 5.00116
0.926298 14.2726 5.00087
0.910551 14.2285 5.05633
0.908728 14.3168 4.87018
0.911291 14.3305 4.76197
0.908766 14.2454 4.98821
0.910413 14.2148 5.04961
0.931182 14.3118 4.78972
0.92576 14.1708 5.10507
0.953568 14.3363 4.76168
0.945191 14.1699 5.1058
0.946416 14.1856 5.07472
0.943869 14.1829 5.0736
0.945926 14.3283 4.75832
0.922233 14.0305 5.49804
0.946184 14.0965 5.3391
0.91395 14.0006 5.56015
0.912952 14.0033 5.56128
0.947183 14.0938 5.33797
0.923398 14.098 5.37571
0.902702 14.0312 5.534
0.886611 13.9634 5.69219
0.930924 14.0822 5.4071
0.905579 14.0917 5.37127
0.902059 14.0705 5.43695
0.875962 13.991 5.62606
0.887768 14.0207 5.56461
0.879852 13.9885 5.55043
0.909027 14.035 5.42302
0.905958 14.0356 5.42309
0.915167 14.0337 5.42287
0.938575 14.0677 5.36387
0.0368129 18.0303 -0.320498
-0.0865618 18.1531 -0.0861061
-0.0478574 18.1972 -0.103032
0.0495209 18.0774 -0.0138106
0.172324 17.9005 -0.296813
0.172324 17.9005 -0.296813
-0.0268374 18.0088 -0.0790918
-0.0375926 18.0636 0.00219713
0.0328074 17.9368 -0.169126
0.0966081 17.9017 -0.20038
0.0482895 17.974 -0.105758
-0.0630041 18.0428 -0.119194
-0.0730882 18.0575 -0.0503001
-0.0349949 17.9855 -0.148223
0.323486 17.456 -1.07044
0.193003 17.5545 -0.851529
0.358343 17.537 -0.817709
0.356749 17.5408 -0.821155
0.384254 17.4892 -0.898547
0.39758 17.3995 -0.952803
0.275217 17.4353 -0.858243
0.340287 17.3438 -0.977107
0.390375 17.289 -1.04428
0.370411 17.344 -0.965791
0.320363 17.4172 -0.869945
0.293983 17.3534 -1.00538
0.243279 17.4421 -0.876811
0.264198 17.4051 -0.926862
0.52432 17.1041 -1.49755
0.431061 17.2203 -1.33828
0.501565 17.1526 -1.44794
0.368809 17.2601 -1.25213
0.415439 17.202 -1.33176
0.405182 17.2652 -1.28736
0.552844 17.1676 -1.43045
0.538138 17.217 -1.2819
0.530948 17.2342 -1.29846
0.510584 17.2569 -1.22988
0.498621 17.1759 -1.22169
0.552449 17.1307 -1.30494
0.511119 17.1906 -1.2269
0.627582 17.0382 -1.43762
0.662604 16.8998 -1.55963
0.460256 17.0976 -1.37736
0.394215 17.1808 -1.22836
0.422069 17.1441 -1.28465
0.436716 17.124 -1.31114
0.672859 16.892 -1.74989
0.733309 16.8005 -1.84073
0.814445 16.6931 -1.95632
0.83513 16.6773 -1.98107
0.763534 16.7547 -1.88615
0.850707 16.7656 -1.93643
0.80753 16.8037 -1.89385
0.688662 16.9407 -1.72723
0.727937 16.9543 -1.66218
0.737433 16.9109 -1.6219
0.737433 16.9109 -1.6219
0.766984 16.7863 -1.7025
0.729495 16.8603 -1.63645
0.704569 16.8408 -1.6382
0.686878 16.8598 -1.61436
0.650599 16.8556 -1.63413
0.690011 16.8181 -1.67962
0.682157 16.8106 -1.73008
1.50433 16.0832 -2.67776
1.49544 16.1179 -2.65843
1.51578 16.1004 -2.6809
1.62348 16.0802 -2.7304
1.68757 16.0052 -2.83241
1.69672 15.9848 -2.86303
1.6564 16.065 -2.74426
1.80131 15.8468 -2.88215
1.71402 15.954 -2.76997
1.74283 15.9019 -2.81317
1.70639 15.9424 -2.76788
1.64791 15.9975 -2.6989
1.60956 16.0352 -2.65309
1.73021 15.8753 -2.85672
1.63683 15.9635 -2.7364
1.66598 15.9388 -2.85445
1.52361 16.0607 -2.69714
1.54395 16.0433 -2.71962
1.89691 15.7718 -3.11437
2.07145 15.6722 -3.26438
1.85583 15.8428 -3.04462
1.89742 15.8084 -3.0896
1.86824 15.8667 -2.99984
1.9828 15.7613 -3.14164
2.01245 15.723 -3.14225
1.93716 15.7993 -3.0507
1.97272 15.7662 -3.10198
1.97772 15.754 -3.08877
1.95342 15.7526 -3.05518
1.9421 15.7803 -3.03259
1.88623 15.7369 -3.04598
2.05634 15.6038 -3.22721
2.80171 14.9563 -4.33095
2.66368 15.0591 -4.15554
2.87988 14.9178 -4.39473
2.82527 14.9651 -4.31851
2.78607 14.9961 -4.26944
2.6584 15.0875 -4.12847
2.64803 15.1046 -4.09819
2.72182 15.0466 -4.15375
2.69065 15.0094 -4.15343
2.71289 14.9948 -4.17675
2.73681 14.9806 -4.19902
2.81569 14.9207 -4.29855
2.72631 14.9971 -4.16841
2.71933 14.9834 -4.21392
2.7584 14.9518 -4.26311
2.87439 14.8599 -4.4133
2.83532 14.8914 -4.36411
2.94001 14.8521 -4.5052
2.94001 14.8521 -4.5052
2.98335 14.8233 -4.55243
3.0224 14.8063 -4.56063
3.04239 14.7916 -4.58532
2.98293 14.8346 -4.51018
3.02191 14.8074 -4.56169
3.25696 14.6058 -4.84798
3.03583 14.7609 -4.57252
3.14189 14.672 -4.73225
3.12542 14.6869 -4.70473
3.12409 14.6866 -4.70562
3.13923 14.6715 -4.73403
2.97556 14.784 -4.53524
3.13164 14.6853 -4.74812
3.09247 14.7095 -4.69472
4.02021 14.1481 -5.7518
4.01982 14.1474 -5.75175
4.14889 14.0677 -5.89777
4.1487 14.0673 -5.89775
4.10555 14.0936 -5.84906
4.10632 14.0951 -5.84915
3.86794 14.238 -5.58126
3.99987 14.162 -5.72677
4.10695 14.0952 -5.84867
4.06399 14.1219 -5.8
3.87036 14.242 -5.58125
3.93977 14.2003 -5.64903
4.00223 14.1623 -5.72483
4.04233 14.1302 -5.77318
4.0436 14.1305 -5.77222
4.14941 14.0665 -5.89673
4.10664 14.092 -5.84726
3.95457 14.1823 -5.67674
3.95482 14.1817 -5.67622
-1.15238 18.304 0.638477
-1.07254 18.3639 0.605399
-1.15562 18.3078 0.637392
-1.2387 18.2517 0.669385
-1.23046 18.2933 0.652208
-1.34371 18.2529 0.632008
-1.37761 18.235 0.629086
-1.26223 18.3083 0.599406
-1.25998 18.308 0.604003
-1.18973 18.3646 0.548419
-1.18524 18.3641 0.557612
-1.23733 18.2955 0.533957
-1.32479 18.2617 0.587625
-1.16282 18.3761 0.525933
-1.11003 18.2803 0.490063
-1.17293 18.304 0.489253
-1.07296 18.2627 0.545024
-1.15334 18.2288 0.516839
-1.21266 18.2002 0.652758
-1.12776 18.2561 0.620588
-1.03689 18.2905 0.567351
-1.09548 18.2604 0.59582
-1.75836 17.9892 0.792886
-1.78226 17.9718 0.813636
-1.74809 17.9865 0.819247
-1.8529 17.9305 0.757979
-1.61593 17.9651 0.680848
-1.6344 17.9914 0.672838
-1.76013 17.8458 0.789948
-1.81608 17.8135 0.814412
-1.55574 17.9566 0.72629
-1.94685 17.7993 0.898205
-1.82839 17.8632 0.867902
-3.26787 17.2399 1.08155
-3.20444 17.2638 1.0737
-2.95514 17.3688 1.03937
-2.92416 17.3823 1.03495
-3.04491 17.3915 1.00639
-3.13696 17.3492 1.02346
-3.07717 17.3642 0.968458
-3.05047 17.3933 0.978292
-2.94267 17.3897 0.929834
-3.06129 17.3237 0.954085
-3.04956 17.2988 0.961996
-3.13812 17.2796 1.06193
-2.88457 17.3677 1.00692
-2.92198 17.3767 1.03348
-3.72217 17.0757 1.11685
-3.56896 17.1492 1.0916
-3.47286 17.1907 1.09235
-3.50543 17.1772 1.09006
-3.65884 17.0887 1.07965
-3.6576 17.0842 1.07526
-3.59768 17.116 1.06315
-3.41731 17.2089 1.0246
-3.44696 17.1919 1.02956
-3.47785 17.1794 1.03891
-3.41917 17.2156 1.03119
-3.47475 17.1682 1.02794
-3.52489 17.1156 1.04086
-3.6805 17.0501 1.07404
-3.47146 17.1587 1.02223
-3.50173 17.144 1.02938
-3.50706 17.0877 1.06417
-3.4751 17.1011 1.06326
-3.44876 17.1179 1.04093
-5.01674 16.4244 1.39332
-4.98478 16.4366 1.39217
-4.73176 16.5397 1.38125
-5.09498 16.3462 1.38656
-4.78203 16.4815 1.36924
-4.84471 16.4548 1.37298
0.152831 20.15 0.0150064
0.136894 20.0953 0.0701586
-0.0177509 20.1947 0.0216122
0.0942654 20.1394 0.0491482
0.21775 20.0981 0.0704764
0.264201 20.0587 0.0894176
0.862863 19.6639 0.188573
1.06758 19.5114 0.349132
0.950564 19.5985 0.273815
0.855499 19.6681 0.217801
0.805042 19.6314 0.292361
0.898715 19.5996 0.309441
1.03679 19.5248 0.347536
0.761603 19.5501 0.259349
0.792177 19.5452 0.278431
1.0133 19.4447 0.378664
0.748243 19.6 0.278715
0.796155 19.5213 0.221193
1.07225 19.3348 0.350646
1.0029 19.462 0.21131
1.06787 19.4439 0.222825
0.776879 19.5753 0.147194
1.29385 19.33 0.319347
1.35383 19.301 0.347239
1.37452 19.3143 0.435376
1.22932 19.4059 0.388619
1.36757 19.3145 0.455036
1.39626 19.2962 0.465371
1.30468 19.2918 0.467807
1.26522 19.351 0.437142
1.17634 19.3487 0.433676
1.15353 19.3745 0.420043
1.21907 19.2739 0.426905
1.19673 19.2649 0.350521
1.16575 19.2828 0.344909
1.25174 19.2292 0.381407
1.2998 19.1937 0.431952
1.24275 19.3068 0.298211
1.18577 19.2902 0.302586
1.27641 19.2403 0.333659
1.81335 19.0213 0.528894
1.89158 18.9495 0.546373
2.00252 18.8757 0.587199
2.00252 18.8757 0.587199
1.86108 18.9587 0.528866
1.69258 19.114 0.543041
1.72064 19.0972 0.554416
1.70771 19.1133 0.502376
1.6746 19.1303 0.504556
1.7073 19.0422 0.613482
1.69562 19.0803 0.593024
1.69005 19.0731 0.596221
1.77804 19.0272 0.62723
1.68741 19.0029 0.604828
1.62352 19.0135 0.564986
2.04427 18.7686 0.647766
1.80728 18.8998 0.577879
1.62408 18.9985 0.540149
1.60223 19.0145 0.510515
1.75686 18.9322 0.536686
1.64244 19.0462 0.455466
1.96859 18.8284 0.603774
1.91702 18.8683 0.577458
3.06503 18.3121 1.05147
3.00461 18.3307 1.01982
3.11961 18.2674 1.06394
2.99982 18.374 1.08859
3.12604 18.3115 1.10685
2.95256 18.4042 1.03868
3.13294 18.2133 1.17039
3.20502 18.1655 1.13245
2.90298 18.3144 1.04527
3.03933 18.2655 1.05536
3.1831 18.1886 1.11381
2.97512 18.2867 1.03629
3.38178 18.1391 1.1738
3.49155 18.1081 1.28312
3.47139 18.0805 1.29872
3.60285 18.0361 1.32776
3.4818 18.0956 1.29188
3.81382 17.9307 1.39113
3.7533 17.9605 1.37318
3.6893 17.9852 1.35752
3.51466 18.0845 1.29914
3.60784 17.9747 1.33935
3.52224 17.9986 1.26542
3.54861 17.9832 1.28424
3.5497 17.9832 1.28117
3.57499 17.9678 1.30307
3.48503 18.0143 1.27729
3.51357 17.9989 1.28998
3.51703 18.0403 1.22413
3.45001 18.0592 1.20965
3.56844 17.9988 1.24885
3.43644 18.0975 1.18932
3.49132 18.0611 1.21176
5.0164 17.3169 1.73138
4.74566 17.4287 1.62316
4.94687 17.3459 1.73814
4.94069 17.3361 1.74266
4.76347 17.4203 1.6763
4.82426 17.395 1.69716
4.69451 17.4017 1.61868
4.90129 17.3112 1.71115
4.99019 17.2724 1.74993
4.96055 17.2853 1.73701
5.31466 17.1869 1.85119
5.37349 17.1563 1.87279
5.25421 17.205 1.82106
5.58265 17.0741 1.96545
5.46354 17.1242 1.91467
5.43341 17.134 1.90008
5.16362 17.2329 1.77635
5.343 17.1632 1.85631
5.21878 17.2284 1.83269
5.31507 17.1936 1.8555
5.36066 17.1633 1.90821
5.60482 17.0798 2.00805
5.60482 17.0798 2.00805
5.48514 17.1256 1.95625
5.30482 17.1929 1.87918
5.47417 17.0944 1.95633
5.3534 17.1404 1.9059
5.29319 17.1648 1.88164
5.17301 17.1967 1.81587
5.20382 17.1859 1.82779
5.52175 17.0936 1.93784
5.30406 17.1581 1.84859
-0.328157 20.8148 -0.46006
-0.299808 20.8578 -0.409955
-0.217108 20.9778 -0.250802
-0.218858 20.8625 -0.460341
-0.102165 20.8528 -0.365284
-0.109208 20.8255 -0.338765
-0.103617 20.9125 -0.108488
-0.0574534 20.9544 -0.0678392
-0.0363523 20.9128 -0.146891
-0.376637 20.7256 -0.509353
-0.43418 20.6323 -0.597991
-0.42535 20.5855 -0.764484
-0.404363 20.5855 -0.776605
-0.393266 20.6491 -0.686234
-0.313962 20.7127 -0.635259
-0.311811 20.7551 -0.571982
-0.340196 20.7127 -0.620107
-0.298746 20.5536 -0.659531
-0.395782 20.4239 -0.84543
-0.220006 20.6836 -0.56407
-0.387919 20.4551 -0.675451
-0.406245 20.4138 -0.73039
-0.340154 20.6414 -0.458698
-0.413743 20.6459 -0.520831
-0.736532 20.1944 -1.18155
-0.69983 20.1554 -1.27338
-0.591743 20.372 -0.996185
-0.611386 20.3503 -1.01882
-0.527921 20.4153 -0.965054
-0.606514 20.2854 -1.12346
-0.552617 20.3089 -1.06988
-0.50539 20.4074 -0.971339
-0.632502 20.0912 -1.25926
-0.578371 20.1532 -1.13336
-0.526566 20.2467 -0.928644
-0.622189 20.0769 -1.15042
-0.577129 20.1406 -1.07255
-0.616687 20.1193 -1.08437
-0.547088 20.183 -1.02064
-0.754072 20.1039 -1.14948
-0.652087 20.217 -0.988742
-0.608902 20.2814 -0.910566
-0.58792 20.3323 -0.860643
-0.900451 19.8615 -1.64351
-0.765624 20.0039 -1.43819
-0.794961 19.9548 -1.49564
-0.70688 19.9556 -1.31934
-0.794852 19.861 -1.53371
-0.890709 19.7363 -1.71961
-0.768483 19.9478 -1.27896
-0.792278 19.9029 -1.34342
-0.820659 19.8579 -1.40529
-0.878286 19.7232 -1.60644
-0.779385 19.8582 -1.42861
-0.817955 19.9849 -1.28115
-1.00866 19.6315 -1.69056
-0.983477 19.6841 -1.63262
-0.879114 19.8122 -1.45109
-1.16301 19.544 -1.92065
-1.08049 19.6398 -1.92517
-1.13655 19.5768 -2.00882
-1.11636 19.6184 -1.94387
-1.14664 19.556 -2.04129
-1.08758 19.6602 -1.88351
-1.05021 19.7022 -1.82774
-1.04011 19.723 -1.79527
-1.11486 19.6389 -1.9068
-1.10627 19.6392 -1.9114
-1.00148 19.6241 -1.90129
-1.00452 19.7001 -1.84966
-0.991596 19.6136 -1.8988
-0.99304 19.5783 -1.87347
-0.962091 19.6227 -1.81576
-1.06215 19.5276 -1.85493
-1.03027 19.5485 -1.83337
-0.977599 19.6102 -1.74574
-1.05176 19.5479 -1.8219
-1.04746 19.548 -1.82419
-1.07581 19.6269 -1.76037
-1.10011 19.5445 -1.84761
-1.22247 19.3496 -2.12179
-1.07883 19.558 -1.81521
-1.2969 19.3709 -2.25325
-1.31876 19.3195 -2.25455
-1.35398 19.2685 -2.33885
-1.33819 19.2993 -2.32147
-1.30716 19.3373 -2.35991
-1.44125 19.1638 -2.63008
-1.44527 19.1636 -2.62811
-1.36995 19.2341 -2.53067
-1.4056 19.199 -2.58038
-1.33503 19.3192 -2.37984
-1.33503 19.3192 -2.37984
-1.2097 19.3416 -2.31864
-1.25517 19.2995 -2.40366
-1.21857 19.3815 -2.29601
-1.28235 19.2984 -2.43485
-1.25156 19.2212 -2.40014
-1.27734 19.1842 -2.45354
-1.22375 19.265 -2.3521
-1.26091 19.2148 -2.43622
-1.22881 19.2478 -2.33869
-1.2824 19.167 -2.44014
-1.20101 19.2917 -2.29065
-1.21542 19.268 -2.31333
-1.37626 19.1139 -2.49653
-1.22782 19.2666 -2.26223
-1.27598 19.232 -2.30686
-1.39567 19.1606 -2.4724
-1.29273 19.2869 -2.24545
-1.27498 19.2974 -2.21592
-1.32851 19.2958 -2.27926
-1.55003 19.009 -2.83377
-1.55668 18.9868 -2.81709
-1.52503 19.0106 -2.89088
-1.53969 19.0098 -2.88372
-1.55434 19.0091 -2.87657
-1.55858 18.8484 -3.08668
-1.47401 18.9796 -2.89766
-1.43854 19.0367 -2.81683
-1.48493 18.9596 -2.92441
-1.45766 18.9937 -2.86973
-1.43026 19.0918 -2.7663
-1.39499 19.0529 -2.75857
-1.52897 18.8984 -2.86302
-1.53264 18.8982 -2.86123
-1.47688 18.9644 -2.75332
-1.51758 18.9307 -2.80101
-1.54743 18.9636 -2.80755
-1.6375 18.7851 -3.04843
-1.80341 18.6749 -3.28327
-1.80086 18.6936 -3.35113
-1.72059 18.7759 -3.24292
-1.84582 18.6523 -3.40253
-1.63217 18.7929 -3.20003
-1.66908 18.752 -3.25717
-1.67786 18.7205 -3.28382
-1.62689 18.7325 -3.16246
-1.64512 18.7125 -3.19107
-1.80113 18.5706 -3.37039
-1.75925 18.6104 -3.31692
-1.73021 18.65 -3.25623
-1.69475 18.6898 -3.19914
-1.68746 18.7792 -3.10794
-1.8051 18.5929 -3.33149
-1.86797 18.5443 -3.41903
-2.20264 18.2584 -3.86672
-2.03929 18.4147 -3.64922
-2.03929 18.4147 -3.64922
-2.05856 18.3999 -3.6809
-1.99156 18.4818 -3.62181
-2.05397 18.4185 -3.69888
-2.1546 18.2865 -3.87114
-2.12229 18.3079 -3.85369
-2.10621 18.3302 -3.82503
-1.91783 18.4493 -3.65088
-2.01445 18.3736 -3.75246
-2.13469 18.2783 -3.87934
-1.98851 18.4375 -3.70565
-1.98638 18.435 -3.70527
-1.91959 18.4213 -3.62773
-1.89838 18.4407 -3.60048
-1.95798 18.4096 -3.59007
-2.02805 18.3233 -3.70172
-2.02535 18.3232 -3.70359
-2.06038 18.2801 -3.75942
-2.0334 18.3011 -3.73804
-2.12997 18.2821 -3.76311
-2.06974 18.3489 -3.68836
-2.09692 18.3349 -3.71454
-2.01804 18.4256 -3.61512
-2.3292 18.1232 -4.00245
-2.33066 18.1156 -3.99387
-2.5138 17.935 -4.23187
-2.39447 18.0561 -4.11032
-2.37963 18.011 -4.14133
-2.27696 18.1161 -4.04675
-2.32575 18.0834 -4.08581
-2.39499 17.9649 -4.14181
-2.52227 17.86 -4.27136
-2.2626 18.0965 -4.04227
-2.30588 18.0571 -4.08045
-2.52843 17.8359 -4.24034
-2.48759 17.875 -4.19985
-2.45336 17.9149 -4.15381
-2.32676 18.1019 -3.98472
-2.4948 17.9013 -4.15654
-2.30652 18.0775 -3.9815
-2.31204 18.0842 -3.98238
-2.66388 17.8102 -4.31463
-2.84041 17.6384 -4.51061
-2.63527 17.8384 -4.31243
-2.727 17.7363 -4.42165
-2.85499 17.5717 -4.55315
-2.64529 17.7814 -4.36983
-2.60398 17.8242 -4.33326
-2.63448 17.7434 -4.34292
-2.67743 17.714 -4.39143
-2.8764 17.5455 -4.5657
-2.78703 17.6264 -4.49548
-2.885 17.5288 -4.54012
-2.86588 17.5768 -4.48434
-2.62438 17.7889 -4.27381
-2.77494 17.65 -4.40733
-2.98862 17.5186 -4.60275
-3.13627 17.3706 -4.78464
-3.02295 17.4412 -4.69835
-2.94549 17.4742 -4.60646
-3.01596 17.4139 -4.67966
-3.03815 17.4011 -4.71247
-3.20977 17.2415 -4.85978
-2.97609 17.4504 -4.61985
-3.06771 17.3665 -4.7175
-3.06771 17.3665 -4.7175
-2.9879 17.4959 -4.5817
-3.05436 17.4281 -4.65329
-3.64075 16.9025 -5.31285
-3.42706 17.1017 -5.047
-3.54766 16.9963 -5.22397
-3.42046 17.1182 -5.06624
-3.60967 16.885 -5.32526
-3.4766 17.0087 -5.17417
-3.40993 17.0711 -5.09922
-3.62389 16.8826 -5.31183
-3.44927 17.0401 -5.10087
-3.45059 17.0403 -5.0998
-3.59427 16.9349 -5.25692
-3.46062 17.0485 -5.09741
-3.83026 16.7256 -5.56436
-3.93833 16.6233 -5.71004
-3.75926 16.7898 -5.46352
-3.76633 16.786 -5.50586
-3.78795 16.7424 -5.55863
-3.7733 16.7641 -5.53512
-3.69104 16.8206 -5.43796
-3.76699 16.756 -5.53429
-3.89795 16.629 -5.69481
-3.87942 16.6453 -5.67048
-3.84285 16.6762 -5.62009
-3.73022 16.7799 -5.47922
-3.69146 16.8191 -5.43655
-3.729 16.7845 -5.48351
-3.83121 16.6921 -5.59026
-3.6966 16.8064 -5.4233
-3.75454 16.7838 -5.4629
-3.80913 16.7346 -5.53672
-3.76643 16.7593 -5.48667
-3.99184 16.5741 -5.78453
-3.99735 16.565 -5.82335
-4.05237 16.5152 -5.89644
-4.05657 16.5154 -5.89353
-4.14687 16.4323 -6.01632
-3.99185 16.5592 -5.82351
-4.02888 16.5273 -5.87286
-4.0068 16.537 -5.84659
-4.00858 16.5307 -5.84107
-3.99024 16.5473 -5.81671
-4.1244 16.4333 -5.98456
-3.97349 16.5608 -5.7891
-3.99831 16.5452 -5.80941
-4.37397 16.2183 -6.32701
-4.412 16.1817 -6.38586
-4.49406 16.1052 -6.49686
-4.30515 16.2743 -6.24813
-4.28655 16.2961 -6.22076
-4.30483 16.2691 -6.24495
-4.45104 16.1392 -6.43996
-4.391 16.1944 -6.35418
-4.33288 16.253 -6.26922
-4.29264 16.291 -6.21296
-4.37364 16.2157 -6.32554
-4.29134 16.2893 -6.21279
-0.0325013 21.9355 0.0204551
-0.161076 21.8583 0.169436
-0.0890428 21.9948 -0.0383114
-0.186305 21.8669 0.0401324
-0.161768 21.9338 -0.00120837
-0.167459 21.9245 -0.00809062
-0.164614 21.9292 -0.0046495
-0.157707 21.8096 -0.0349256
-0.18987 21.8289 0.0156017
-0.160726 21.8872 -0.11814
-0.0742914 21.7663 -0.00492775
-0.0920188 21.805 -0.0710005
-0.163362 21.6151 0.234379
-0.117616 21.8055 -0.074998
0.012917 21.9076 -0.0761787
0.0015355 21.8889 -0.0899429
-0.0241856 21.7991 0.0227956
-0.0112969 21.8559 -0.0695007
-0.0713316 21.6386 0.217507
-0.0612882 21.6906 0.12177
-0.153459 21.4134 0.875856
-0.119472 21.5107 0.686119
-0.0821334 21.6035 0.493984
-0.0988114 21.6496 0.478347
-0.183567 21.6055 0.567606
-0.207695 21.6439 0.503925
-0.189561 21.6822 0.445335
-0.250635 21.5301 0.554445
-0.20683 21.6736 0.43781
-0.220261 21.6512 0.422185
-0.261045 21.4745 0.603076
-0.22668 21.5419 0.437679
-0.259544 21.4045 0.686488
-0.215731 21.3538 0.660435
-0.185 21.5397 0.356603
-0.137307 21.3021 0.765643
-0.13652 21.3163 0.732133
-0.109947 21.3313 0.872632
-0.130731 21.3322 0.914896
-0.169169 21.3299 0.997206
-0.2405 21.3748 0.926611
-0.255521 21.3351 0.987755
-0.293608 21.1582 1.04632
-0.302996 21.1708 1.05297
-0.297144 21.2139 0.993198
-0.327219 21.1013 1.18139
-0.174225 21.2413 0.85167
-0.196773 21.2414 0.848754
-0.145257 21.209 1.0134
-0.13206 21.2743 0.878394
-0.287424 20.8957 1.6301
-0.241248 20.9717 1.48904
-0.213107 21.0376 1.38755
-0.371147 20.9753 1.4608
-0.373454 20.9715 1.45791
-0.380375 20.9601 1.44925
-0.402246 20.8434 1.56595
-0.384989 20.9526 1.44348
-0.40803 20.8847 1.54203
-0.24912 20.9284 1.35984
-0.344133 20.8033 1.55502
-0.428761 20.6778 1.75214
-0.307708 20.9524 1.31336
-0.31662 20.9312 1.34719
-0.375287 20.8046 1.54918
-0.206941 20.9807 1.40254
-0.223279 20.948 1.42805
-0.326486 20.7253 1.71244
-0.241735 20.9177 1.40495
-0.408839 20.6685 2.00478
-0.464577 20.5446 2.15554
-0.388609 20.5979 2.01601
-0.410216 20.5884 2.05247
-0.524537 20.5329 2.22499
-0.538601 20.5343 2.22105
-0.426077 20.703 1.97092
-0.412598 20.7242 1.93949
-0.543374 20.6011 2.06061
-0.64739 20.4328 2.35833
-0.588912 20.5274 2.19389
-0.509203 20.6564 2.00986
-0.489543 20.6882 1.93888
-0.598121 20.3908 2.19984
-0.577419 20.4391 2.14004
-0.535907 20.4963 2.04404
-0.574259 20.3199 2.3178
-0.511419 20.4231 2.15774
-0.471933 20.4696 2.15443
-0.428573 20.5358 2.06214
-0.390107 20.5928 1.91212
-0.393504 20.5886 1.95829
-0.445732 20.5107 2.14004
-0.602497 20.3798 2.44766
-0.654125 20.2498 2.56582
-0.654125 20.2498 2.56582
-0.744525 20.1379 2.7232
-0.631675 20.2569 2.53554
-0.836842 20.1097 2.8407
-0.853221 20.1669 2.72885
-0.834874 20.191 2.70842
-0.691707 20.2933 2.39142
-0.669897 20.2701 2.38698
-0.710252 20.1572 2.66075
-0.606589 20.2692 2.41766
-0.614779 20.2629 2.45557
-0.943518 19.9385 3.04152
-0.937316 19.9284 3.03834
-0.857784 20.0188 2.90903
-0.839396 20.0329 2.88189
-0.882154 19.9705 2.95695
-0.886289 19.9773 2.95906
-0.925569 20.0436 2.93314
-1.02503 19.8959 3.15391
-0.871332 20.0746 2.89115
-0.886019 20.0776 2.88455
-1.044 19.942 3.03224
-0.939893 20.0301 2.82111
-0.949553 20.0027 2.84453
-0.981084 19.8596 3.01448
-0.900088 19.9455 2.88249
-0.858677 19.9836 2.88478
-0.897734 19.9383 2.92609
-1.35062 19.5142 3.74492
-1.16687 19.6759 3.42719
-1.23245 19.7181 3.41836
-1.32462 19.6063 3.50704
-1.20414 19.7572 3.30163
-1.2275 19.7257 3.32109
-1.30461 19.6142 3.47048
-1.38801 19.5229 3.62929
-1.30434 19.5367 3.52646
-1.19141 19.6708 3.30611
-1.20131 19.6083 3.47052
-1.29532 19.494 3.60745
-1.13104 19.6841 3.29542
-1.11016 19.7104 3.27137
-1.43682 19.3905 3.93192
-1.55277 19.3084 4.07983
-1.53814 19.3277 4.04788
-1.43516 19.4409 3.86207
-1.42604 19.4393 3.86562
-1.57572 19.2878 4.05711
-1.535 19.3406 3.95628
-1.46623 19.3857 3.81361
-1.43724 19.4238 3.74909
-1.52919 19.3176 3.94518
-1.48116 19.4102 3.82117
-1.437 19.3645 3.81515
-1.48159 19.3295 3.87398
-1.46362 19.2917 3.96112
-1.41575 19.352 3.86866
-1.35561 19.4266 3.73999
-1.72122 18.9994 4.56022
-1.65444 19.1764 4.2993
-1.77923 18.974 4.65025
-1.7022 19.1206 4.33303
-1.74858 19.0603 4.45231
-1.73734 19.0166 4.43291
-1.67344 19.1319 4.26511
-1.72381 19.0679 4.38089
-1.72381 19.0679 4.38089
-1.68698 19.0807 4.31714
-1.79981 18.8788 4.6749
-1.75347 18.9433 4.55792
-1.67913 19.0573 4.35074
-1.66619 19.0732 4.32199
-1.67034 19.0381 4.43074
-1.64979 19.0662 4.41257
-1.81658 18.8958 4.76278
-1.89439 18.7809 4.96583
-1.94318 18.7501 5.05665
-1.91117 18.7979 4.96831
-1.98686 18.7324 5.07307
-1.96683 18.7608 5.01145
-1.9275 18.7099 4.99965
-1.88173 18.788 4.84778
-1.81949 18.8504 4.73674
-1.83839 18.8264 4.80095
-1.99611 18.6356 5.23323
-2.06757 18.5855 5.3705
-2.02867 18.6553 5.23211
-2.07492 18.5492 5.44315
-2.14803 18.4275 5.6839
-2.14511 18.4775 5.57121
-2.13281 18.4979 5.53892
-2.14322 18.4396 5.55352
-2.13597 18.4617 5.52023
-2.08386 18.546 5.34579
-2.04837 18.5896 5.23901
-2.0366 18.5687 5.2791
-2.02411 18.5714 5.28444
-2.20344 18.3012 5.92706
-2.16709 18.3619 5.78398
-2.24512 18.2885 5.95598
-2.2122 18.3577 5.81563
-2.22786 18.3244 5.88662
-2.22044 18.3098 5.83642
-2.22216 18.3126 5.8373
-2.30461 18.1588 6.1981
-2.2876 18.1887 6.12567
-2.27552 18.1424 6.19663
-2.23099 18.2386 5.9813
-2.20949 18.27 5.91102
-2.23126 18.2213 6.06321
-2.24733 18.1901 6.13489
-2.18383 18.3137 5.84737
-2.18785 18.3073 5.84327
-2.33246 18.0285 6.54144
-2.30576 18.0943 6.38055
-2.36417 17.9759 6.66872
-2.36344 17.99 6.63602
-2.34351 18.0311 6.54081
-2.31377 18.1138 6.34876
-2.38064 17.9514 6.69438
-2.32865 18.1068 6.34296
-2.34597 18.0594 6.43602
-2.36631 17.9877 6.59592
-2.37498 17.9607 6.66051
-2.33478 18.016 6.49711
-2.33478 18.016 6.49711
-2.31456 18.0819 6.33467
-2.33074 18.0426 6.43148
-2.37675 17.9245 6.7223
-2.36639 17.9508 6.6577
-2.35476 17.9769 6.5933
-2.33 18.056 6.39846
-2.30918 18.062 6.40483
-2.35076 17.9541 6.66158
-2.30793 18.0692 6.36925
-2.41312 17.7852 7.1214
-2.38875 17.8643 6.92643
-2.42249 17.7862 7.12062
-2.40861 17.8264 7.0236
-2.38256 17.9068 6.82937
-2.40964 17.8473 6.95521
-2.41125 17.8369 6.98917
-2.39937 17.8873 6.85763
-2.41811 17.7991 7.04963
-2.42183 17.7867 7.08249
-2.40628 17.8536 6.91977
-2.39729 17.8943 6.82232
-2.39971 17.8798 6.85449
-2.40066 17.8211 6.98406
-2.38666 17.8721 6.85305
-2.41011 17.8086 7.01613
-2.42846 17.7449 7.17979
-2.39441 17.8595 6.88531
-2.38741 17.885 6.81981
-2.3844 17.8552 6.92328
-2.38607 17.8525 6.92196
-2.38131 17.8666 6.88992
-2.40386 17.7982 7.05112
-2.43693 17.6938 7.31141
-2.41171 17.7728 7.11652
-2.47598 17.5823 7.6045
-2.4572 17.6457 7.45835
-2.4811 17.5832 7.60421
-2.50439 17.5061 7.78775
-2.5001 17.5209 7.75075
-2.486 17.5674 7.64073
-2.48089 17.5835 7.60438
-2.48169 17.5794 7.60261
-2.46992 17.6072 7.52827
-2.47574 17.5792 7.60327
-2.45992 17.6243 7.49287
0.117706 22.8429 -0.329958
0.00560025 22.8958 -0.276578
-0.0855323 22.9726 -0.217181
0.2234 22.8212 -0.282194
0.182959 22.8572 -0.24142
0.0377894 22.9653 -0.157591
0.228638 22.8116 -0.262605
0.158544 22.8705 -0.222236
0.0876628 22.9245 -0.177572
-0.0606197 22.8776 -0.0658437
-0.0244184 22.8742 -0.0773491
0.0716013 22.8498 -0.115475
-0.0244144 22.7799 -0.187953
-0.0481898 22.8146 -0.119454
0.134644 22.7165 -0.37501
0.0641402 22.7791 -0.340293
-0.0591438 22.8483 -0.25093
-0.12886 22.9157 -0.220509
-0.0335416 22.8402 -0.273958
-0.107197 22.8837 -0.222058
0.380648 22.6066 -0.507501
0.272221 22.6601 -0.455395
0.639602 22.4998 -0.543852
0.587404 22.5354 -0.525264
0.300315 22.7311 -0.423028
0.358918 22.6955 -0.431297
0.345147 22.7311 -0.350795
0.358437 22.7133 -0.380727
0.360875 22.6556 -0.307198
0.431161 22.6111 -0.358696
0.299586 22.6202 -0.290357
0.380473 22.581 -0.331267
0.568172 22.4453 -0.447998
0.435075 22.4512 -0.451433
0.285218 22.5719 -0.328137
0.272409 22.5719 -0.348774
0.766168 22.3311 -0.734456
0.753003 22.3616 -0.716526
0.681783 22.4464 -0.629948
0.808385 22.3561 -0.696189
0.878437 22.2909 -0.656574
0.783407 22.3714 -0.603453
0.781388 22.2878 -0.583298
0.773939 22.2794 -0.585355
0.91012 22.2069 -0.658706
0.898947 22.1945 -0.661792
0.72724 22.362 -0.531675
0.714883 22.2429 -0.637951
0.745472 22.2253 -0.64378
0.63192 22.362 -0.685348
1.43881 21.8895 -1.12714
1.35948 21.95 -1.07587
1.14287 22.0544 -0.965665
1.08774 22.0921 -0.932155
1.19057 22.082 -0.919468
1.14657 22.1008 -0.92933
1.12022 22.0875 -0.791585
1.31516 21.9793 -0.931997
1.26169 22.0248 -0.9048
1.18088 22.0891 -0.860526
1.06216 22.0133 -0.802147
1.19368 21.9365 -1.00071
1.19428 21.9404 -1.00418
1.13958 21.9855 -0.977624
1.08427 22.0267 -0.947586
1.02837 22.064 -0.914069
1.08367 22.0228 -0.944107
1.57629 21.7475 -1.23596
1.84403 21.5646 -1.40291
1.69416 21.6878 -1.29909
1.74411 21.6467 -1.33369
1.48938 21.7942 -1.18811
1.63061 21.7878 -1.1873
1.70576 21.7366 -1.24868
1.86371 21.6344 -1.35894
1.75119 21.6664 -1.18105
1.56328 21.8208 -1.09412
1.69596 21.6438 -1.1711
1.62827 21.662 -1.14132
1.70283 21.5879 -1.26235
1.48056 21.7204 -1.12538
1.69744 21.6063 -1.29062
2.88387 21.0242 -1.99938
2.98659 20.9512 -2.0732
2.83478 21.0953 -1.91428
3.07387 20.954 -2.08967
3.07387 20.954 -2.08967
2.98895 21.0011 -2.03955
2.99875 21.0011 -2.0239
2.77359 21.1267 -1.88817
3.09623 20.9192 -2.02716
2.79459 21.1182 -1.84756
2.84817 21.0582 -1.86161
3.03802 20.8864 -2.01315
2.79293 21.0279 -1.84722
2.79896 21.0043 -1.89189
2.81698 20.9893 -1.92539
3.06161 20.8569 -2.09769
3.51576 20.6678 -2.41757
3.24001 20.8185 -2.23305
3.43521 20.7408 -2.31342
3.27213 20.8408 -2.206
3.21225 20.8743 -2.17839
3.54946 20.6739 -2.37683
3.23358 20.8581 -2.13344
3.34591 20.7278 -2.21739
3.35776 20.7431 -2.21314
3.25264 20.8084 -2.13507
3.17872 20.7927 -2.1574
3.24265 20.7604 -2.17974
3.41046 20.6643 -2.28231
3.45595 20.6326 -2.33198
3.46541 20.653 -2.40411
3.25227 20.7673 -2.24211
3.17264 20.816 -2.18592
4.56441 20.0262 -3.20609
4.39765 20.1088 -3.0923
4.40918 20.1133 -3.07981
4.42022 20.1076 -3.0607
4.34693 20.09 -3.01282
4.43836 20.0611 -3.06812
4.58151 20.001 -3.16366
4.44339 20.0676 -3.06629
4.50211 20.0068 -3.14305
4.50334 20.0068 -3.14134
4.58942 19.9654 -3.19515
4.52957 19.9931 -3.16269
4.34601 20.0886 -3.01326
4.52078 20.0131 -3.18997
4.35434 20.0838 -3.06538
4.32689 20.1165 -3.06001
4.40999 20.0727 -3.11606
4.89686 19.8571 -3.43283
4.9538 19.8305 -3.46964
4.83624 19.8782 -3.39778
4.9741 19.832 -3.43819
4.94529 19.8442 -3.41983
4.97397 19.8418 -3.4451
4.96736 19.8103 -3.43514
4.91001 19.8347 -3.39758
4.90724 19.8306 -3.39891
4.85358 19.8606 -3.35958
4.94839 19.8125 -3.46537
4.94842 19.8097 -3.4634
4.77194 19.8924 -3.36351
6.3619 19.3644 -4.26107
6.11536 19.4412 -4.12526
6.33183 19.3751 -4.24333
6.33183 19.3751 -4.24333
6.30304 19.3821 -4.22137
6.30304 19.3821 -4.22137
6.18123 19.4221 -4.15172
6.36386 19.3634 -4.25701
6.12031 19.4423 -4.11701
6.14891 19.4256 -4.13412
6.2105 19.4079 -4.16898
6.15077 19.4292 -4.13274
6.14647 19.4245 -4.13789
6.3624 19.3602 -4.25788
6.26848 19.3909 -4.21065
6.2378 19.398 -4.19204
6.3611 19.3609 -4.26059
-0.253239 23.8242 -0.0626758
-0.133539 23.8893 -0.0434005
-0.229793 23.8523 -0.0665832
-0.347813 23.8016 -0.189672
-0.240309 23.8761 -0.108485
-0.337387 23.7875 -0.204819
-0.212831 23.8479 -0.202825
-0.158688 23.89 -0.194543
-0.199404 23.6905 -0.162388
-0.45852 23.5285 -0.199562
-0.182015 23.7727 -0.0462912
-0.130521 23.7579 -0.0634097
-0.10506 23.7809 -0.0572157
-0.144112 23.8377 -0.0222469
-0.195032 23.7916 -0.0346349
-0.746543 23.5284 -0.128614
-0.602294 23.5711 -0.250042
-0.788044 23.4872 -0.248666
-0.958293 23.3812 -0.260943
-0.905677 23.4224 -0.25321
-0.899477 23.4136 -0.258671
