ply
format ascii 1.0
comment VCGLIB generated
element vertex 1716
property float x
property float y
property float z
element face 0
property list uchar int vertex_indices
end_header
-0.0630839 2.75893 -0.46767
-0.0819486 2.76493 -0.48181
-0.0788045 2.752 -0.440366
-0.0806827 2.75743 -0.456793
-0.0848284 2.7645 -0.444979
-0.0840009 2.76264 -0.454806
-0.0865796 2.77045 -0.488736
-0.0824729 2.75841 -0.44713
-0.0928844 2.80528 -0.532065
-0.092885 2.80001 -0.52451
-0.0915545 2.7923 -0.508715
-0.0888916 2.79268 -0.49979
-0.0853416 2.80352 -0.515459
-0.0665307 2.80005 -0.510195
-0.0634529 2.78267 -0.516148
-0.0621209 2.78549 -0.515463
-0.0864448 2.77805 -0.523304
-0.0835687 2.77475 -0.515502
-0.0807092 2.77787 -0.533505
-0.0918665 2.78394 -0.511272
-0.0896905 2.77831 -0.513372
-0.0902345 2.77971 -0.512847
-0.101005 2.81959 -0.579381
-0.100192 2.81606 -0.572479
-0.0956761 2.83124 -0.601257
-0.0869609 2.82265 -0.572989
-0.0807069 2.82176 -0.582703
-0.0785584 2.80457 -0.588678
-0.0899404 2.8126 -0.625406
-0.0947246 2.79605 -0.580016
-0.0980336 2.80304 -0.60201
-0.0984831 2.80701 -0.617235
-0.0894551 2.79397 -0.581703
-0.111603 2.82102 -0.617995
-0.107846 2.81376 -0.604607
-0.105345 2.83874 -0.629652
-0.100335 2.8408 -0.629971
-0.103 2.84276 -0.63694
-0.0968285 2.83943 -0.631162
-0.0953104 2.83691 -0.624163
-0.0935311 2.84007 -0.639815
-0.0929026 2.83598 -0.62499
-0.0964316 2.84598 -0.66173
-0.0989975 2.81202 -0.632118
-0.0998274 2.82187 -0.65348
-0.111004 2.82711 -0.666339
-0.113032 2.82347 -0.625194
-0.109663 2.87528 -0.7285
-0.107019 2.85979 -0.688542
-0.104598 2.86373 -0.706044
-0.102982 2.8546 -0.710245
-0.0999846 2.84869 -0.694354
-0.101921 2.85672 -0.709553
-0.110613 2.84284 -0.70464
-0.112777 2.83466 -0.68854
-0.112773 2.83796 -0.696863
-0.121674 2.84084 -0.684491
-0.129188 2.89168 -0.767763
-0.127436 2.91185 -0.796481
-0.114312 2.89527 -0.766215
-0.114312 2.89527 -0.766215
-0.109393 2.88111 -0.754396
-0.120554 2.86866 -0.760223
-0.119502 2.86902 -0.760126
-0.126441 2.88932 -0.789471
-0.127433 2.88517 -0.781463
-0.12817 2.92458 -0.826788
-0.126151 2.93442 -0.839099
-0.129749 2.91548 -0.813984
-0.121904 2.9388 -0.835886
-0.124838 2.92105 -0.81017
-0.113096 2.91978 -0.810476
-0.110146 2.92545 -0.825321
-0.111443 2.91424 -0.823371
-0.111088 2.91107 -0.816059
-0.122911 2.92634 -0.844295
-0.126192 2.91779 -0.831148
-0.122592 2.95705 -0.870538
-0.115818 2.95302 -0.854168
-0.11334 2.96569 -0.873856
-0.113048 2.96996 -0.880424
-0.107498 2.95215 -0.863746
-0.107681 2.9431 -0.860483
-0.113194 2.9696 -0.907905
-0.113505 2.96517 -0.901662
-0.114127 2.9563 -0.889178
-0.11475 2.94743 -0.876693
-0.118776 2.96223 -0.894471
-0.118895 2.94409 -0.86991
-0.117696 2.94811 -0.876324
-0.121859 2.99008 -0.92404
-0.122524 2.98891 -0.92469
-0.121594 2.98519 -0.917115
-0.121261 2.98578 -0.91679
-0.119212 2.9973 -0.930216
-0.123634 3.00789 -0.953635
-0.122633 3.00421 -0.945891
-0.121214 3.00466 -0.945704
-0.116523 3.00191 -0.938223
-0.113123 2.99081 -0.914588
-0.113301 3.00402 -0.957394
-0.115152 2.98179 -0.929235
-0.120999 2.98224 -0.918802
-0.144299 3.03064 -1.025
-0.141771 3.02833 -1.01705
-0.139244 3.02602 -1.00911
-0.136717 3.02371 -1.00116
-0.130701 3.01348 -0.978257
-0.136807 3.02771 -1.00959
-0.131468 3.02313 -0.99352
-0.128433 3.02341 -0.994285
-0.115832 3.01164 -0.973087
-0.124603 3.01731 -0.997504
-0.129246 3.01651 -1.00586
-0.120453 3.00922 -0.982425
-0.12919 3.01041 -0.98911
-0.135869 3.0176 -1.01276
-0.140048 3.02096 -1.01038
-0.134946 3.01566 -0.99499
-0.143518 3.0351 -1.03368
-0.148809 3.0368 -1.04823
-0.142226 3.03288 -1.04329
-0.142764 3.0342 -1.04277
-0.149187 3.03285 -1.0575
-0.156287 3.03498 -1.07117
-0.144415 3.0273 -1.04361
-0.153621 3.0288 -1.05628
-0.160343 3.03123 -1.06981
-0.157291 3.03207 -1.05399
-0.151046 3.03036 -1.0401
-0.183099 3.04332 -1.10911
-0.195426 3.04518 -1.13808
-0.173288 3.04286 -1.09651
-0.167395 3.03655 -1.09148
-0.176367 3.03704 -1.10451
-0.181902 3.03711 -1.11048
-0.190271 3.03885 -1.12367
-0.180712 3.03854 -1.10202
-0.17299 3.03664 -1.08851
-0.177139 3.03827 -1.09502
-0.218758 3.04861 -1.17434
-0.203212 3.04401 -1.14294
-0.213516 3.04866 -1.16706
-0.206034 3.04661 -1.1512
-0.214147 3.04829 -1.16676
-0.214147 3.04829 -1.16676
-0.220813 3.05026 -1.18304
-0.207911 3.04748 -1.16015
-0.207911 3.04748 -1.16015
-0.20314 3.04561 -1.15289
-0.211647 3.04782 -1.16815
-0.215901 3.04892 -1.17579
-0.215901 3.04892 -1.17579
-0.211506 3.04574 -1.16847
-0.219675 3.04846 -1.18388
-0.224449 3.04825 -1.19145
-0.203806 3.04263 -1.15286
-0.206292 3.0424 -1.15154
-0.221294 3.04657 -1.18332
-0.22695 3.04911 -1.19007
-0.0494892 3.42641 -0.0247429
-0.0582305 3.43196 -0.029746
-0.049332 3.42785 -0.0315795
-0.0681695 3.4301 -0.0400705
-0.0663712 3.43086 -0.0395052
-0.0783091 3.42639 -0.0368199
-0.085333 3.41127 -0.0295434
-0.0900782 3.41549 -0.0195235
-0.0889698 3.41183 -0.0181368
-0.0822505 3.41253 -0.0416434
-0.0858872 3.41309 -0.0302367
-0.0866515 3.40357 -0.00893625
-0.061979 3.3975 -0.0165106
-0.0468217 3.40525 -0.0249356
-0.0799531 3.44218 0.0172301
-0.0916971 3.44 0.0128329
-0.0822609 3.44027 0.00405713
-0.0965326 3.42716 9.78E-4
-0.0940745 3.43243 8.58E-4
-0.0951001 3.40969 0.00536213
-0.0941652 3.41213 -0.00110762
-0.111174 3.42845 0.032631
-0.0952667 3.41564 -0.00232337
-0.0886588 3.40556 0.0152894
-0.0939238 3.40818 0.0188866
-0.0866612 3.43983 0.0662451
-0.08306 3.44075 0.0544484
-0.108728 3.44843 0.0549755
-0.10428 3.44611 0.0443638
-0.103249 3.44865 0.0507129
-0.103249 3.44865 0.0507129
-0.10889 3.45468 0.0729796
-0.10958 3.41786 0.0420211
-0.118582 3.43011 0.0553133
-0.109577 3.41766 0.0621465
-0.112612 3.41904 0.060573
-0.122911 3.42537 0.0816362
-0.108221 3.41622 0.049648
-0.095883 3.41837 0.0677715
-0.0952935 3.41136 0.0494276
-0.0863317 3.43014 0.0688478
-0.104104 3.45141 0.10379
-0.10622 3.45162 0.110157
-0.122659 3.46566 0.113476
-0.126262 3.46263 0.105542
-0.135187 3.44996 0.0981616
-0.127296 3.45269 0.0861766
-0.128841 3.44956 0.0864044
-0.129941 3.43247 0.090885
-0.130861 3.4356 0.0896093
-0.138964 3.43745 0.115902
-0.129092 3.42947 0.09223
-0.132606 3.43281 0.104854
-0.113865 3.43224 0.113125
-0.10967 3.43089 0.10772
-0.108009 3.44605 0.118827
-0.102389 3.43568 0.101775
-0.100516 3.43222 0.0960904
-0.124941 3.46701 0.149266
-0.151861 3.46392 0.138413
-0.153433 3.46765 0.143719
-0.15918 3.45836 0.160034
-0.156384 3.45451 0.155182
-0.152351 3.45258 0.142651
-0.149097 3.45355 0.128706
-0.15229 3.45279 0.165488
-0.147279 3.44787 0.154359
-0.141387 3.45038 0.163612
-0.127866 3.45809 0.159056
-0.129406 3.45518 0.159451
-0.144068 3.48232 0.19244
-0.151706 3.49139 0.18456
-0.155771 3.48959 0.176823
-0.181828 3.49118 0.204626
-0.171328 3.48571 0.185039
-0.175001 3.47658 0.194681
-0.172574 3.47277 0.190732
-0.170148 3.46897 0.186783
-0.171178 3.4761 0.217454
-0.169241 3.47212 0.206447
-0.158204 3.46768 0.199817
-0.141545 3.47475 0.190412
-0.142307 3.47341 0.190681
-0.14837 3.47572 0.200534
-0.164228 3.50273 0.234462
-0.169222 3.5097 0.221383
-0.166947 3.51023 0.229115
-0.164691 3.50775 0.224554
-0.182351 3.5105 0.22172
-0.169433 3.50569 0.209539
-0.192124 3.50369 0.227787
-0.186171 3.49244 0.215734
-0.188947 3.49168 0.2288
-0.185391 3.49082 0.237952
-0.183125 3.48985 0.239537
-0.166247 3.48497 0.229099
-0.168898 3.48393 0.228412
-0.167573 3.48445 0.228755
-0.177186 3.48772 0.236471
-0.168741 3.49198 0.238145
-0.177697 3.50256 0.256218
-0.166502 3.48933 0.233627
-0.179146 3.5227 0.259346
-0.184935 3.52715 0.254215
-0.183261 3.52812 0.262447
-0.191889 3.51123 0.275414
-0.178974 3.51373 0.264349
-0.183173 3.50688 0.26615
-0.184968 3.51093 0.270957
-0.209299 3.55569 0.322853
-0.218351 3.54462 0.293184
-0.212911 3.52493 0.297605
-0.21933 3.53107 0.307281
-0.223751 3.53634 0.318284
-0.217042 3.54543 0.339479
-0.213491 3.53627 0.32251
-0.22854 3.57537 0.369329
-0.237785 3.58155 0.369449
-0.227259 3.57231 0.351009
-0.228204 3.57273 0.350442
-0.226314 3.57188 0.351577
-0.224358 3.56876 0.340371
-0.238918 3.55638 0.340041
-0.242764 3.56161 0.34959
-0.235523 3.54953 0.34446
-0.231585 3.5523 0.358334
-0.22695 3.54517 0.343089
-0.225472 3.56569 0.368277
-0.221988 3.56044 0.358523
-0.24562 3.59363 0.407274
-0.243446 3.59128 0.402615
-0.234071 3.5791 0.385561
-0.240899 3.58542 0.379633
-0.242953 3.58768 0.384244
-0.247623 3.58356 0.377688
-0.254602 3.58552 0.386842
-0.25406 3.58644 0.386633
-0.254602 3.58552 0.386842
-0.257967 3.59101 0.395836
-0.253472 3.5737 0.379984
-0.249867 3.5689 0.390602
-0.255597 3.57473 0.398923
-0.255321 3.57298 0.393148
-0.242551 3.5698 0.39348
-0.246525 3.56829 0.392548
-0.238187 3.57344 0.393498
-0.26138 3.61069 0.435749
-0.269266 3.61801 0.434083
-0.253711 3.60289 0.419903
-0.267725 3.6058 0.418497
-0.267502 3.5998 0.414613
-0.269584 3.59656 0.415593
-0.269004 3.59026 0.41996
-0.270105 3.59575 0.415838
-0.263736 3.58754 0.424722
-0.267965 3.59177 0.428056
-0.265965 3.58844 0.42296
-0.274423 3.5969 0.429627
-0.25899 3.6022 0.43489
-0.257548 3.59616 0.431084
-0.290363 3.64461 0.47328
-0.287583 3.64354 0.465184
-0.294318 3.65181 0.472146
-0.280847 3.63528 0.458222
-0.301744 3.65609 0.470816
-0.288168 3.62065 0.446685
-0.291598 3.62181 0.453061
-0.316753 3.68036 0.490524
-0.310738 3.66274 0.475462
-0.312542 3.66747 0.47817
-0.326306 3.68864 0.489925
-0.334298 3.68274 0.489945
-0.31412 3.66011 0.475568
-0.31669 3.65558 0.479631
-0.316706 3.65512 0.480296
-0.316739 3.65422 0.481625
-0.311332 3.64913 0.48338
-0.314052 3.6534 0.486153
-0.312386 3.66695 0.492526
-0.34354 3.71278 0.508996
-0.336964 3.7036 0.506317
-0.331686 3.69702 0.495676
-0.328366 3.69266 0.493947
-0.334274 3.70139 0.498622
-0.341023 3.70477 0.496838
-0.359369 3.7182 0.504841
-0.345413 3.70165 0.496771
-0.339587 3.69221 0.493424
-0.353879 3.70739 0.504231
-0.347657 3.69797 0.501388
-0.358171 3.71551 0.513281
-0.341145 3.69945 0.508816
-0.344415 3.70395 0.510437
-0.334842 3.68398 0.502539
-0.342449 3.70567 0.509847
-0.34337 3.70474 0.510397
-0.360359 3.73673 0.516691
-0.360494 3.73618 0.517786
-0.353435 3.72622 0.513559
-0.364158 3.74061 0.520994
-0.357589 3.73253 0.511436
-0.356961 3.73253 0.512495
-0.373694 3.75215 0.51785
-0.37018 3.74718 0.515557
-0.359636 3.73226 0.508676
-0.38021 3.74619 0.521238
-0.373342 3.7365 0.515732
-0.37183 3.73535 0.520829
-0.363198 3.72004 0.511836
-0.369371 3.73024 0.517125
-0.365343 3.72515 0.51607
-0.367826 3.73713 0.523186
-0.363446 3.72565 0.518024
-0.381185 3.75757 0.531695
-0.406296 3.80178 0.543227
-0.392679 3.78206 0.533903
-0.392959 3.78208 0.533464
-0.385311 3.77216 0.53012
-0.395519 3.78117 0.531871
-0.39186 3.76926 0.527041
-0.400389 3.78516 0.534174
-0.393383 3.76703 0.529668
-0.405766 3.78792 0.538497
-0.402647 3.78131 0.539252
-0.390481 3.76638 0.535172
-0.397255 3.7763 0.539772
-0.38951 3.77417 0.537496
-0.46534 3.89798 0.591214
-0.455789 3.88277 0.584106
-0.456993 3.88261 0.582936
-0.457828 3.88225 0.582656
-0.457619 3.88234 0.582726
-0.473846 3.90698 0.595677
-0.462362 3.88554 0.58712
-0.458788 3.88016 0.585912
-0.474 3.90619 0.597146
-0.456379 3.87502 0.582717
-0.456857 3.8808 0.586959
-0.0590746 3.42933 -0.0594491
-0.0593708 3.43114 -0.0585951
-0.026775 3.45068 -0.0486026
-0.0598991 3.44201 -0.0458646
-0.043879 3.44337 -0.0340717
-0.0505434 3.44186 -0.0326671
-0.0114602 3.43306 -0.0291265
-0.0506894 3.41803 -0.0230215
-0.0566781 3.40229 -0.0390359
-0.0228419 3.41503 -0.0347192
-0.0560069 3.40666 -0.0277311
-0.0361079 3.41168 -0.031924
0.004698 3.44947 -0.0693773
0.00421225 3.45294 -0.067763
0.0186389 3.46142 -0.0567591
-0.0137121 3.45358 -0.051099
-0.00749287 3.45428 -0.0543646
0.022153 3.45653 -0.0451984
-0.00389413 3.45143 -0.0406431
0.00514225 3.44641 -0.0369422
0.014487 3.43753 -0.0361613
0.00246087 3.41881 -0.047475
0.0119173 3.42361 -0.0642144
0.0163249 3.42905 -0.071136
-0.00349488 3.42588 -0.0675804
0.0582201 3.45828 -0.0810325
0.0377279 3.45202 -0.0786417
0.0713283 3.47166 -0.0702066
0.071503 3.47233 -0.0685102
0.0716777 3.47301 -0.0668139
0.0509013 3.46658 -0.0685479
0.0443252 3.4658 -0.0657331
0.0767736 3.45957 -0.0511499
0.0508721 3.45344 -0.0463494
0.0648524 3.45319 -0.0475341
0.0643376 3.45485 -0.0481419
0.0497357 3.43486 -0.0755641
0.0655354 3.43481 -0.0696266
0.0458254 3.44713 -0.0813869
0.0389637 3.44542 -0.0803433
0.0463401 3.44547 -0.0807791
0.0473696 3.44217 -0.0795636
0.0758456 3.44566 -0.0825226
0.0557755 3.43891 -0.078784
0.130619 3.48077 -0.0837604
0.0998605 3.47264 -0.0840677
0.122046 3.48183 -0.0758315
0.106937 3.47749 -0.0787105
0.137876 3.48187 -0.060826
0.115364 3.4786 -0.0631447
0.119857 3.46094 -0.055313
0.133931 3.46572 -0.0551796
0.119285 3.46404 -0.0538353
0.106776 3.44512 -0.0752073
0.118925 3.45924 -0.0870835
0.16394 3.47718 -0.0877855
0.175458 3.49233 -0.0744452
0.188538 3.49706 -0.0665469
0.18148 3.49352 -0.0631152
0.154284 3.47667 -0.0570193
0.16546 3.46168 -0.0614578
0.166287 3.45958 -0.0676472
0.166994 3.45941 -0.07515
0.173329 3.46974 -0.0845002
0.214864 3.49372 -0.0768307
0.251285 3.50549 -0.0615715
0.251285 3.50549 -0.0615715
0.232641 3.5014 -0.0689434
0.228607 3.50271 -0.0537519
0.228444 3.49194 -0.044681
0.228059 3.49485 -0.0457055
0.237086 3.4827 -0.0446233
0.262646 3.48503 -0.0620729
0.237285 3.4788 -0.0686435
0.230314 3.48524 -0.0744698
0.223557 3.48685 -0.077527
0.285502 3.50349 -0.0556603
0.304376 3.50579 -0.0492996
0.280919 3.51237 -0.0469477
0.269565 3.50937 -0.054136
0.269057 3.50976 -0.0528271
0.277921 3.51112 -0.0369371
0.258759 3.49821 -0.0362041
0.267096 3.49035 -0.0350699
0.26665 3.4916 -0.0344735
0.274619 3.48788 -0.0347354
0.264223 3.48285 -0.0435056
0.271381 3.48337 -0.0439186
0.273708 3.48421 -0.0515282
0.274799 3.48699 -0.0565467
0.32905 3.51534 -0.0381594
0.350796 3.51681 -0.0328564
0.332746 3.5218 -0.0282575
0.33461 3.52031 -0.0331685
0.347809 3.52346 -0.0264725
0.320479 3.51789 -0.037409
0.340548 3.50121 -0.0140424
0.350325 3.49925 -0.0196809
0.336647 3.49603 -0.0250189
0.315431 3.49176 -0.0311843
0.338379 3.49938 -0.0331069
0.324925 3.49794 -0.0396861
0.324669 3.49729 -0.0385124
0.317175 3.49463 -0.0382808
0.32482 3.49923 -0.0401181
0.414244 3.53113 -0.0154814
0.400372 3.52683 -0.0195129
0.38341 3.52984 -0.0151391
0.377078 3.52772 -0.0200515
0.396532 3.52283 0.00170213
0.389223 3.52046 8.03125E-4
0.382975 3.51357 -0.00131112
0.379464 3.50439 -0.0134701
0.379122 3.50475 -0.0123012
0.4064 3.51192 4.0E-5
0.377409 3.50657 -0.00645688
0.392076 3.50906 -0.00379288
0.402339 3.51354 -0.0193881
0.409392 3.51595 -0.0183202
0.409392 3.51595 -0.0183202
0.461411 3.53604 -0.00783613
0.459675 3.54008 -6.46625E-4
0.446374 3.53897 -0.00144737
0.458488 3.53668 0.00947762
0.432692 3.53575 0.00183763
0.432777 3.52803 0.00787825
0.458488 3.53668 0.00947762
0.458584 3.53557 0.00985225
0.448884 3.51709 0.0022725
0.461435 3.51967 0.0062255
0.450134 3.51792 -0.00603375
0.450219 3.52301 -0.0109895
0.485625 3.54314 0.00345363
0.478382 3.54049 0.00920163
0.484879 3.53578 0.0144505
0.510104 3.54333 0.0170345
0.498878 3.52988 0.0158382
0.495181 3.52328 0.00421588
0.48877 3.53166 -0.00556962
0.554418 3.54797 0.00974225
0.579766 3.55861 0.0246825
0.53767 3.55034 0.0129993
0.564411 3.55275 0.028511
0.543441 3.54912 0.0225365
0.543824 3.544 0.0249967
0.536604 3.5445 0.0226602
0.529579 3.54313 0.0209592
0.540578 3.53142 0.0154236
0.574876 3.54065 0.028698
0.532248 3.5313 0.0182573
0.553562 3.53597 0.0234776
0.54176 3.53364 0.00847513
0.541237 3.53135 0.0128326
0.541446 3.53227 0.0110896
0.570028 3.54685 0.0124896
0.555956 3.5411 0.00951013
0.617848 3.56252 0.0297196
0.622628 3.56807 0.0346412
0.58875 3.55854 0.0217588
0.635936 3.55945 0.0503556
0.607945 3.55337 0.0417779
0.594403 3.54919 0.0369486
0.61115 3.54903 0.0358462
0.603403 3.54761 0.0357333
0.605404 3.54761 0.0295645
0.59925 3.54761 0.0230544
0.673969 3.57967 0.053571
0.653532 3.57825 0.0491734
0.648221 3.57599 0.0457157
0.668432 3.57757 0.0672509
0.658937 3.56949 0.0610939
0.665283 3.57041 0.0631035
0.65259 3.56856 0.0590843
0.662086 3.56646 0.0563479
0.662797 3.56607 0.0549636
0.646166 3.56752 0.0394807
0.680865 3.57652 0.057843
0.701417 3.59138 0.0682862
0.696855 3.58756 0.0646324
0.710094 3.59863 0.0770421
0.704807 3.59644 0.0735554
0.693186 3.59254 0.0683665
0.698822 3.59457 0.0712584
0.693534 3.59238 0.0677716
0.702737 3.59699 0.077502
0.71413 3.60102 0.0831407
0.691115 3.58609 0.0776311
0.691115 3.58609 0.0776311
0.702604 3.58972 0.0832745
0.693864 3.58093 0.0759279
0.692856 3.58265 0.0766674
0.717768 3.58906 0.0841995
0.718117 3.5889 0.0836046
0.708435 3.58575 0.0740941
0.697074 3.58634 0.0650842
0.719852 3.5918 0.0778101
0.697834 3.58244 0.0665625
0.755089 3.60888 0.0943843
0.74217 3.60463 0.0882247
0.771774 3.61789 0.108836
0.737474 3.60406 0.0989167
0.759532 3.60486 0.10633
0.732898 3.5969 0.0951981
0.747195 3.59997 0.0991039
0.741482 3.59755 0.0946883
0.748351 3.59941 0.0970144
0.762387 3.6046 0.0999218
0.76908 3.60686 0.102332
0.755695 3.60234 0.0975114
0.755878 3.60584 0.0946304
0.775818 3.60999 0.104022
0.808699 3.62273 0.117353
0.794059 3.622 0.11302
0.800077 3.62385 0.117739
0.798929 3.62305 0.121144
0.805849 3.62406 0.124012
0.798705 3.62254 0.12202
0.798705 3.62254 0.12202
0.791927 3.61758 0.121167
0.784895 3.61631 0.118737
0.819795 3.62511 0.130074
0.794847 3.61284 0.116458
0.794215 3.61323 0.117829
0.829477 3.62021 0.1281
0.809508 3.61874 0.117414
0.795483 3.61856 0.111383
0.859701 3.63166 0.142966
0.848313 3.62451 0.138142
0.84861 3.62429 0.137376
0.849737 3.62476 0.133823
0.849647 3.62455 0.134183
0.849916 3.62517 0.133103
0.868447 3.63047 0.138286
0.856149 3.62729 0.134528
0.917941 3.63753 0.155454
0.891376 3.63616 0.151671
0.897761 3.63683 0.153315
0.923036 3.63576 0.162063
0.929804 3.63507 0.162946
0.910772 3.633 0.15767
0.924397 3.63461 0.158115
0.924501 3.63703 0.156936
0.912003 3.63454 0.153211
0.899469 3.63396 0.14892
0.963871 3.64292 0.171745
0.949606 3.64151 0.16726
0.949132 3.64112 0.168913
0.941866 3.63893 0.167609
0.956157 3.64134 0.171667
0.963504 3.64014 0.173907
0.949824 3.63721 0.168064
0.964096 3.63905 0.172425
0.985816 3.64348 0.177391
0.978732 3.64244 0.175086
0.957478 3.63933 0.16817
-0.0892523 4.03317 -0.0816908
-0.105534 4.02293 -0.0700032
-0.219932 4.08396 -0.12853
-0.20829 4.0769 -0.138364
-0.205957 4.06432 -0.137214
-0.228387 4.08509 -0.150675
-0.236297 4.07591 -0.147187
-0.259221 4.10625 -0.144963
-0.254805 4.09826 -0.142218
-0.319788 4.15357 -0.153318
-0.316789 4.14636 -0.165577
-0.347709 4.15961 -0.158136
-0.360006 4.16719 -0.143576
-0.364179 4.18904 -0.146501
-0.375559 4.19107 -0.151153
-0.368503 4.1858 -0.152387
-0.369437 4.18473 -0.152099
-0.400476 4.22915 -0.141077
-0.388139 4.21535 -0.143649
-0.411137 4.24266 -0.142518
-0.417685 4.25713 -0.146276
-0.414017 4.23053 -0.146041
-0.428631 4.26961 -0.149151
-0.427853 4.27857 -0.152609
-0.427525 4.26793 -0.159119
-0.430565 4.26683 -0.157111
-0.440193 4.30056 -0.156598
-0.438244 4.30118 -0.159558
-0.449593 4.30548 -0.158485
-0.445157 4.29766 -0.157386
-0.458631 4.33194 -0.162114
-0.490766 4.37267 -0.160584
-0.478751 4.35152 -0.166614
-0.490115 4.36295 -0.162282
-0.484013 4.35733 -0.160399
-0.507496 4.39011 -0.15715
-0.517513 4.40287 -0.156105
-0.523233 4.41032 -0.15744
-0.535157 4.42428 -0.156011
-0.0691482 4.4665 -0.137376
-0.0743965 4.45703 -0.126861
-0.0686672 4.45733 -0.122111
-0.064389 4.45317 -0.128004
-0.0535203 4.47378 -0.120722
-0.0564993 4.47761 -0.122265
-0.0590358 4.48211 -0.117218
-0.0641857 4.48109 -0.113801
-0.059574 4.46591 -0.111335
-0.062713 4.46697 -0.110579
-0.056994 4.49071 -0.103178
-0.0411118 4.51293 -0.0816652
-0.046369 4.50915 -0.085745
-0.0403608 4.49574 -0.0820485
-0.038627 4.52481 -0.0675962
-0.0477883 4.53217 -0.0500118
-0.0430297 4.53387 -0.0507848
-0.0541023 4.56574 -0.0454258
-0.058167 4.5596 -0.0484223
-0.0524272 4.5614 -0.0365957
-0.0468652 4.54814 -0.0435017
-0.070297 4.59145 -0.0244772
-0.0602628 4.60247 -0.0176977
-0.0597002 4.59763 -0.0208085
-0.0648273 4.64446 0.00425475
-0.06704 4.64534 0.0147697
-0.0679913 4.64534 0.0146783
-0.0644905 4.64575 0.0144645
-0.0639297 4.64032 0.01186
-0.0735413 4.66825 0.0201067
-0.068166 4.66726 0.0248352
-0.0648885 4.66267 0.0213792
-0.0832077 4.73024 0.0382485
-0.0892525 4.72897 0.0376915
-0.0873097 4.73407 0.0434553
-0.0900902 4.74689 0.041003
-0.0929705 4.75179 0.0441467
-0.0925245 4.7509 0.0471852
-0.092404 4.81396 0.065583
-0.0939232 4.81345 0.0670197
-0.082184 4.66935 -0.179476
-0.0932605 4.67707 -0.179811
-0.086658 4.709 -0.177121
-0.086488 4.77473 -0.175575
-0.0877155 4.80888 -0.181015
-0.088601 4.84075 -0.181092
-0.0865825 4.86553 -0.178074
-0.0765325 4.92741 -0.157224
-0.053685 4.95432 -0.136564
-0.059715 4.94953 -0.13907
-0.0436815 4.96368 -0.127177
-0.308068 1.82296 0.0195682
-0.314161 1.81505 0.0079195
-0.315429 1.80109 0.0459568
-0.332368 1.82087 0.0267012
-0.338226 1.81882 0.0284413
-0.317375 1.80721 0.0036175
-0.363402 1.80411 0.0274855
-0.343388 1.78396 0.00709575
-0.358842 1.81576 -0.00221525
-0.367518 1.81964 0.00597675
-0.360533 1.80669 -0.00972
-0.362062 1.78261 3.665E-4
-0.384564 1.80783 -0.0166185
-0.378024 1.79109 -0.0158298
-0.395022 1.79405 0.0150575
-0.404757 1.80008 0.0112655
-0.405249 1.78131 0.0028295
-0.428592 1.77957 -0.00604075
-0.441567 1.80302 -0.0059165
-0.456523 1.79192 -0.0072815
-0.451912 1.81002 -0.024935
-0.442854 1.77851 -0.0113568
-0.444072 1.77986 -0.00832225
-0.455719 1.79729 -0.0425495
-0.466251 1.79102 -0.0109412
-0.485971 1.77596 -0.0496825
-0.480555 1.77947 -0.0492892
-0.50078 1.80174 -0.0481942
-0.507505 1.77729 -0.0578585
-0.510964 1.76936 -0.045058
-0.511615 1.78371 -0.0287175
-0.506263 1.78421 -0.0268432
-0.534057 1.78766 -0.0364142
-0.52764 1.79753 -0.0597323
-0.521879 1.79814 -0.0579752
-0.513222 1.78862 -0.0622548
-0.530315 1.77247 -0.0635395
-0.544877 1.79558 -0.0649818
-0.544877 1.79558 -0.0649818
-0.559537 1.7705 -0.0484357
-0.577504 1.78978 -0.0771658
-0.579738 1.76683 -0.057556
-0.569338 1.76814 -0.054423
-0.567015 1.7784 -0.0471598
-0.585274 1.7745 -0.0825865
-0.594905 1.76474 -0.0619022
-0.584973 1.76621 -0.0590562
-0.59153 1.76927 -0.056948
-0.609227 1.7855 -0.0826348
-0.60436 1.78646 -0.081378
-0.610942 1.78774 -0.0775767
-0.606152 1.76131 -0.0787372
-0.632505 1.77328 -0.0662195
-0.644041 1.75632 -0.090629
-0.669768 1.77164 -0.0783915
-0.669768 1.77164 -0.0783915
-0.688122 1.7665 -0.0822332
-0.686789 1.77402 -0.0913018
-0.691108 1.75129 -0.104167
-0.685465 1.75148 -0.085791
-0.687078 1.75713 -0.0818887
-0.706959 1.76211 -0.08639
-0.705786 1.77079 -0.0938265
-0.701847 1.74869 -0.102
-0.726304 1.76308 -0.092917
-0.731097 1.76511 -0.0952995
-0.715417 1.76081 -0.113108
-0.740236 1.76782 -0.101205
-0.746012 1.7563 -0.121073
-0.750081 1.74751 -0.108367
-0.767857 1.75767 -0.127276
-0.769845 1.75079 -0.122992
-0.79028 1.76573 -0.113275
-0.789308 1.7697 -0.114759
-0.788357 1.7513 -0.124617
-0.800562 1.75254 -0.12687
-0.829231 1.77864 -0.133226
-0.849885 1.78057 -0.139583
-0.853711 1.76985 -0.152413
-0.851901 1.76965 -0.143645
-0.847443 1.77378 -0.137121
-0.87598 1.78958 -0.152818
-0.869461 1.77947 -0.150323
-0.875394 1.78458 -0.17005
-0.882288 1.78407 -0.169024
-0.895112 1.79617 -0.180539
-0.895112 1.79617 -0.180539
-0.919015 1.81088 -0.192282
-0.927669 1.82153 -0.188556
-0.932207 1.82328 -0.190175
-0.946249 1.82841 -0.194702
-0.949893 1.81587 -0.19749
-0.945827 1.81361 -0.195011
-0.971673 1.83585 -0.200667
-0.977285 1.83256 -0.207126
-0.964984 1.82531 -0.191809
-0.988948 1.83887 -0.199736
-1.0126 1.84039 -0.199402
-1.01239 1.84153 -0.199765
-1.01219 1.84259 -0.201839
-1.01202 1.84116 -0.209072
-1.00773 1.83109 -0.20599
-1.01932 1.8333 -0.201897
-1.03063 1.83711 -0.209839
-1.03619 1.83757 -0.209466
-1.03622 1.83657 -0.209152
-1.03617 1.83554 -0.201986
-1.03626 1.83487 -0.20414
-1.03574 1.83877 -0.199463
-1.23538 1.8341 -0.15494
-1.247 1.83221 -0.152707
-0.564971 1.86244 0.187353
-0.566079 1.86551 0.18672
-0.575464 1.86844 0.167642
-0.574736 1.86628 0.194224
-0.584404 1.864 0.213656
-0.605581 1.85817 0.199261
-0.603682 1.86401 0.200773
-0.583322 1.83974 0.206935
-0.579967 1.84387 0.209345
-0.612529 1.8654 0.239521
-0.610918 1.86282 0.24684
-0.619403 1.83638 0.239789
-0.607357 1.83876 0.241701
-0.608116 1.83976 0.247601
-0.604602 1.85071 0.250522
-0.626649 1.85995 0.274234
-0.625893 1.86134 0.268442
-0.631769 1.86381 0.258238
-0.635934 1.84204 0.248001
-0.634147 1.83584 0.261754
-0.633428 1.83705 0.255875
-0.628213 1.83603 0.252923
-0.62541 1.83799 0.267705
-0.637031 1.86157 0.280145
-0.656529 1.85631 0.279943
-0.64676 1.85572 0.305742
-0.66149 1.85845 0.289817
-0.65786 1.83529 0.29803
-0.649517 1.83732 0.303436
-0.646483 1.83737 0.298867
-0.670883 1.86131 0.323386
-0.686462 1.84299 0.327205
-0.680808 1.83641 0.330583
-0.688992 1.85783 0.367034
-0.692711 1.85873 0.350977
-0.699108 1.84551 0.347452
-0.713923 1.85061 0.374921
-0.706027 1.83704 0.379559
-0.695279 1.83855 0.378143
-0.728979 1.86132 0.429672
-0.719524 1.86032 0.414572
-0.723204 1.86033 0.412754
-0.727424 1.83962 0.431099
-0.745591 1.84301 0.447745
-0.732274 1.84012 0.441459
-0.7254 1.84639 0.444358
-0.723824 1.84427 0.439051
-0.74986 1.85933 0.463312
-0.74986 1.85933 0.463312
-0.748503 1.84513 0.452582
-0.753925 1.85946 0.473262
-0.757474 1.85884 0.477475
-0.755514 1.84426 0.501378
-0.770309 1.86101 0.516608
-0.763088 1.84587 0.520544
-0.758675 1.85042 0.521884
-0.7662 1.85847 0.54044
-0.775319 1.86436 0.547384
-0.78253 1.86253 0.544757
-0.779598 1.86009 0.535046
-0.767802 1.85435 0.545875
-0.790174 1.85686 0.559482
-0.782703 1.84992 0.557621
-0.787369 1.85193 0.56132
-0.77517 1.85325 0.560281
-0.77517 1.85325 0.560281
-0.79528 1.86338 0.574077
-0.785654 1.85447 0.579614
-0.794087 1.8547 0.588372
-0.805024 1.86424 0.594423
-0.817228 1.87936 0.647608
-0.814649 1.87906 0.641779
-0.825587 1.87135 0.652918
-0.823086 1.88235 0.658332
-0.828167 1.88352 0.669122
-0.830961 1.87786 0.669434
-0.836756 1.88944 0.683011
-0.838057 1.89169 0.681437
-0.841477 1.89237 0.679242
-0.844742 1.8902 0.678212
-0.845303 1.88342 0.680356
-0.842993 1.88257 0.675257
-0.841108 1.88232 0.683135
-0.924645 1.95419 0.813799
-0.931916 1.95599 0.823479
-0.930774 1.95516 0.824605
-0.935009 1.96189 0.834249
-0.938165 1.9642 0.83918
-0.93441 1.95787 0.828547
-0.933354 1.95767 0.829299
-0.935575 1.96046 0.834577
-1.08496 2.13654 0.238481
-1.10223 2.13406 0.225277
-1.1106 2.14149 0.221173
-1.12942 2.15837 0.222216
-1.1474 2.16462 0.207412
-1.15203 2.15866 0.211209
-1.16829 2.17694 0.208838
-1.1668 2.17797 0.206415
-1.16588 2.17617 0.201574
-1.16547 2.1668 0.205018
-1.18969 2.18936 0.194115
-1.19645 2.18661 0.190309
-1.18837 2.18005 0.195442
-1.1832 2.17778 0.196442
-1.18792 2.18037 0.194707
-1.18921 2.18289 0.201489
-1.21617 2.20065 0.189779
-1.19973 2.19186 0.188491
-1.2052 2.19304 0.186503
-1.22093 2.20319 0.187813
-1.22889 2.20955 0.180792
-1.22502 2.20275 0.179622
-1.22959 2.20596 0.177683
-1.22426 2.20397 0.179314
-1.22682 2.20085 0.181679
-1.24434 2.21715 0.176189
-1.24516 2.21293 0.172506
-1.26675 2.22527 0.169871
-1.26585 2.22351 0.165138
-1.26182 2.22009 0.16935
-1.29298 2.23756 0.156303
-1.28737 2.23473 0.158015
-1.28241 2.2332 0.163247
-1.32082 2.25418 0.147706
-1.30293 2.24649 0.154023
-1.31444 2.25039 0.14703
-1.30945 2.24664 0.150033
-1.30969 2.24761 0.151994
-1.01534 1.84365 -0.212652
-1.01998 1.83522 -0.208086
-1.03555 1.8482 -0.209834
-1.05476 1.85849 -0.221411
-1.05359 1.85642 -0.226422
-1.05483 1.85188 -0.227288
-1.05656 1.84934 -0.225039
-1.05564 1.85011 -0.226767
-1.06345 1.85294 -0.221225
-1.07915 1.85738 -0.228755
-1.09422 1.86733 -0.232616
-1.1076 1.87125 -0.246518
-1.10517 1.86942 -0.236961
-1.11784 1.87906 -0.247624
-1.12358 1.87682 -0.252231
-1.13112 1.87565 -0.251104
-1.12112 1.87363 -0.243895
-1.13368 1.88314 -0.255242
-1.15308 1.88447 -0.256727
-1.15577 1.89167 -0.261022
-1.16279 1.88794 -0.264302
-1.18405 1.90081 -0.27046
-1.18018 1.89412 -0.267881
-1.21436 1.90649 -0.28114
-1.20845 1.90578 -0.277791
-1.23082 1.91624 -0.288299
-1.23118 1.91594 -0.287628
-1.23043 1.91594 -0.289605
-1.23202 1.9128 -0.288269
-1.22606 1.91124 -0.285054
-1.26199 1.92491 -0.301822
0.51583 1.82653 0.41904
0.527122 1.82393 0.418612
0.533063 1.82387 0.421431
0.536195 1.85998 0.431111
0.527238 1.8474 0.440646
0.539915 1.8288 0.436294
0.531486 1.83007 0.435075
0.544089 1.8288 0.426366
0.546443 1.83005 0.424364
0.565274 1.85178 0.440021
0.558644 1.86163 0.442201
0.564251 1.86145 0.445096
0.555404 1.83485 0.458067
0.561731 1.83602 0.446503
0.561693 1.839 0.438952
0.562354 1.84194 0.437743
0.553724 1.86161 0.472703
0.555765 1.84478 0.475547
0.564072 1.83607 0.4652
0.570746 1.83961 0.459626
0.570676 1.84248 0.452201
0.561824 1.85927 0.487824
0.568149 1.84943 0.492636
0.59072 1.84788 0.483952
0.600769 1.86476 0.492893
0.580618 1.85408 0.509792
0.603225 1.8553 0.500341
0.596654 1.85024 0.492694
0.600768 1.87583 0.503688
0.586913 1.85637 0.518401
0.620863 1.87487 0.524271
0.618904 1.87122 0.519541
0.600161 1.87234 0.539843
0.613082 1.85552 0.534715
0.615807 1.85746 0.525204
0.624664 1.86342 0.53145
0.618284 1.88265 0.560315
0.616486 1.86696 0.558091
0.620604 1.86021 0.549388
0.632056 1.87064 0.538436
0.624734 1.87528 0.572145
0.651022 1.87282 0.568241
0.664549 1.89548 0.591763
0.646688 1.88683 0.599708
0.649149 1.87772 0.599918
0.668453 1.87648 0.593185
0.675065 1.8775 0.612619
0.677374 1.87786 0.619139
0.669385 1.87534 0.609187
0.671071 1.87624 0.607643
0.676552 1.88115 0.602134
0.683647 1.89676 0.643982
0.675239 1.89467 0.634227
0.675728 1.89682 0.633352
0.677432 1.88609 0.634257
0.693461 1.88255 0.638656
0.689276 1.88904 0.615464
0.710811 1.90312 0.644472
0.705102 1.89325 0.635162
0.714485 1.88823 0.660004
0.719367 1.89262 0.654953
0.729513 1.89131 0.67686
0.748077 1.90917 0.687207
0.74686 1.91387 0.69507
0.74986 1.89748 0.709296
0.755202 1.9152 0.709221
0.750986 1.91134 0.713756
0.755115 1.91354 0.71683
0.75337 1.90658 0.719457
0.781751 1.91892 0.734357
0.77222 1.91669 0.729264
0.769419 1.91368 0.732386
0.789021 1.91728 0.734969
0.785633 1.91809 0.74543
0.787896 1.91936 0.743057
0.787799 1.91646 0.750997
0.79596 1.9086 0.759588
0.800094 1.90507 0.756398
0.82684 1.92686 0.780551
0.81361 1.92047 0.778649
0.829246 1.9262 0.794561
0.830929 1.91691 0.795815
0.835314 1.91463 0.792606
0.843651 1.92205 0.791343
0.839578 1.91935 0.787422
0.858841 1.93076 0.809617
0.870576 1.93595 0.824167
0.878232 1.93977 0.833909
0.874962 1.93237 0.839533
0.870018 1.93083 0.835402
0.873491 1.93171 0.83219
0.870814 1.93244 0.825286
0.893094 1.94643 0.852387
0.882444 1.93649 0.84881
0.88324 1.93693 0.847981
0.879675 1.93484 0.843502
0.887284 1.94939 0.863786
0.898865 1.9518 0.876867
0.905743 1.95084 0.871996
0.918021 1.9605 0.887987
0.909056 1.95389 0.875742
0.978093 2.01832 0.980028
0.975314 2.01606 0.975488
0.976483 2.01197 0.977111
0.978758 2.01324 0.974703
0.990948 2.02821 0.997287
0.987613 2.0257 0.992865
0.991194 2.02574 0.998541
1.00327 2.03515 1.00971
1.00327 2.03515 1.00971
1.00611 2.03837 1.01464
0.998312 2.03056 1.00714
1.20054 1.83407 0.48582
1.18911 1.83507 0.480314
1.18383 1.83362 0.476878
1.18612 1.83664 0.48597
1.17973 1.82401 0.485582
1.19521 1.82649 0.482966
1.20614 1.8309 0.502456
1.22192 1.82627 0.499249
1.2056 1.82533 0.490505
1.20671 1.82946 0.488022
1.24371 1.8365 0.509553
1.24399 1.82802 0.509698
1.25531 1.83271 0.513856
1.24483 1.83145 0.521046
1.27213 1.83637 0.533688
1.26848 1.82839 0.52823
1.28085 1.82979 0.530535
1.28996 1.82973 0.539254
1.30761 1.83138 0.544779
1.31368 1.83595 0.545948
1.31878 1.83766 0.549414
1.30996 1.83439 0.553248
1.32389 1.83236 0.553405
1.3398 1.8328 0.563303
1.3454 1.83316 0.566203
1.35693 1.83971 0.5709
1.35473 1.83641 0.575414
1.38404 1.83771 0.589943
1.38532 1.8354 0.587655
1.38575 1.8358 0.586795
1.40846 1.84046 0.601716
1.4338 1.84134 0.614367
1.43379 1.83959 0.614526
1.4352 1.83932 0.611833
-0.312549 3.74619 0.696268
-0.306154 3.74735 0.704567
-0.305 3.75458 0.720163
-0.300638 3.77374 0.748147
-0.302824 3.76809 0.741807
-0.294898 3.77783 0.75433
-0.29459 3.77648 0.764537
-0.286575 3.78875 0.786377
0.322493 3.60718 -0.15616
0.335486 3.59264 -0.153906
0.343973 3.6158 -0.174418
0.34178 3.60892 -0.171546
0.351363 3.61706 -0.176462
0.36062 3.63758 -0.179907
0.366136 3.64286 -0.179073
0.376182 3.64639 -0.173281
0.380865 3.65609 -0.186778
0.391992 3.64808 -0.180105
0.402617 3.65471 -0.190684
0.428291 3.69118 -0.213819
0.433883 3.70758 -0.214427
0.444798 3.69973 -0.207896
0.453238 3.72806 -0.218596
0.479612 3.73957 -0.226629
0.501182 3.77279 -0.24085
0.512194 3.78362 -0.242846
0.513703 3.80231 -0.245469
0.541593 3.84353 -0.268674
0.555474 3.86057 -0.286838
0.555474 3.86057 -0.286838
0.563823 3.88954 -0.303087
0.569771 3.90058 -0.309436
0.570392 3.89281 -0.306986
0.572665 3.9037 -0.316277
-0.277031 4.11447 -0.166687
-0.285801 4.11232 -0.167695
-0.284093 4.12518 -0.172216
-0.305445 4.11999 -0.179872
-0.308924 4.12852 -0.171002
-0.315587 4.13554 -0.178835
-0.319854 4.1436 -0.188672
-0.337869 4.14019 -0.198896
-0.346438 4.1579 -0.218822
-0.365791 4.1638 -0.223674
-0.369392 4.15589 -0.236501
-0.38796 4.16455 -0.243221
-0.396618 4.18021 -0.245308
-0.407258 4.18574 -0.251745
-0.412303 4.17975 -0.26334
-0.433623 4.20135 -0.274671
-0.435007 4.19229 -0.265957
-0.466922 4.21385 -0.279866
-0.469203 4.21447 -0.290818
-0.503865 4.243 -0.299075
-0.510649 4.25234 -0.308287
-0.523057 4.25636 -0.31619
-0.549161 4.30055 -0.334861
-0.552022 4.30422 -0.338801
-0.560142 4.31367 -0.339786
-0.564179 4.3238 -0.345037
-0.00352356 0.580411 -0.0810545
0.00539719 0.540385 -0.0808465
0.00547531 0.535366 -0.080908
0.00915444 0.565537 -0.080189
0.00923256 0.560518 -0.0802505
0.0219106 0.545645 -0.079385
0.0348229 0.515716 -0.078704
0.0138492 0.530469 -0.0802695
0.0338073 0.580954 -0.0779045
0.0320459 0.560851 -0.0783255
0.0409666 0.520825 -0.0781175
0.0387364 0.530831 -0.0781695
0.0402208 0.435483 -0.079338
0.0313001 0.475508 -0.079546
0.0353698 0.480587 -0.0791345
0.0392833 0.495703 -0.0786
0.0352917 0.485606 -0.079073
-0.0661219 0.554832 -0.0497507
-0.0565795 0.554902 -0.057808
-0.0566238 0.579879 -0.0574708
-0.0470548 0.564963 -0.0657304
-0.040631 0.530043 -0.0715739
-0.0342605 0.525095 -0.0770129
-0.0485476 0.510003 -0.0651293
-0.046966 0.51501 -0.0664047
-0.0311152 0.545099 -0.0794289
-0.0359131 0.56005 -0.0751979
-0.0294982 0.530125 -0.0809741
-0.0407198 0.579996 -0.0708996
-0.0423102 0.579984 -0.0695567
-0.0293384 0.440209 -0.0821879
-0.0293739 0.460191 -0.0819182
-0.0293917 0.470181 -0.0817833
-0.0310353 0.500142 -0.0800358
-0.0831098 0.460144 0.0151383
-0.0832352 0.465155 0.0171661
-0.0826853 0.485117 0.0128328
-0.0835871 0.50019 0.0251387
-0.0815343 0.49503 2.95437E-4
-0.0828621 0.520138 0.0187312
-0.0826869 0.520125 0.016657
-0.0825117 0.520111 0.0145829
-0.0817866 0.540059 0.00817541
-0.0813607 0.530024 0.00204559
-0.0811356 0.535008 -7.48125E-5
-0.0811356 0.535008 -7.48125E-5
-0.0804363 0.569961 -0.00454703
-0.0805858 0.55497 -0.00440819
-0.0808592 0.509981 -0.00606578
-0.0821884 0.570097 0.0161942
-0.081838 0.57007 0.012046
-0.0820374 0.550081 0.0122311
-0.0819875 0.555078 0.0121848
-0.0827382 0.550135 0.0205276
-0.0816628 0.570056 0.00997184
-0.083563 0.520193 0.0270277
-0.0826627 0.540127 0.018546
-0.0782339 0.579793 -0.0295291
-0.0787837 0.559831 -0.0251957
-0.0784333 0.559804 -0.029344
-0.0806839 0.509967 -0.00813991
-0.080409 0.519948 -0.0103066
-0.0798592 0.53991 -0.01464
-0.080036 0.574931 -0.00874156
-0.0801357 0.564937 -0.008649
-0.0414228 0.455569 0.0783098
-0.0494338 0.500573 0.0678737
-0.0467585 0.490593 0.0712531
-0.0494537 0.480489 0.0682709
-0.052134 0.485448 0.0649909
-0.045396 0.510708 0.0724462
-0.0453861 0.52075 0.0722476
-0.0467237 0.52574 0.0705579
-0.0480614 0.53073 0.0688682
-0.0534319 0.530607 0.0625067
-0.0547745 0.530576 0.0609163
-0.05743 0.56064 0.0571397
-0.0547447 0.560702 0.0603204
-0.0601649 0.510368 0.0549521
-0.0547944 0.510491 0.0613136
-0.060145 0.530452 0.0545548
-0.0588024 0.530483 0.0561452
-0.0439938 0.570992 0.0728448
-0.0413085 0.571054 0.0760256
-0.0453265 0.581003 0.0710558
-0.0480415 0.550815 0.0684709
-0.0413334 0.545949 0.0765221
-0.0574151 0.575703 0.0568418
-0.0413632 0.515822 0.077118
-0.0427008 0.520812 0.0754283
-0.0775594 0.570218 0.0330854
-0.0708363 0.580415 0.0408387
-0.0655255 0.520286 0.0483919
-0.0628203 0.540432 0.0511754
-0.0681908 0.540308 0.0448139
-0.0654708 0.575517 0.0472995
-0.0668184 0.570465 0.0458084
0.0218002 0.460921 0.0850243
0.0130545 0.496109 0.0835875
0.0129902 0.501153 0.0834823
0.016881 0.52139 0.0834112
0.00405166 0.551473 0.0817298
-0.00392269 0.526132 0.081556
2.25188E-4 0.526192 0.081906
0.0184407 0.561773 0.0827442
-0.00469406 0.586661 0.080293
0.0251124 0.526555 0.084006
0.020836 0.536583 0.0834455
0.0166238 0.541566 0.0829903
-0.025112 0.561139 0.0790692
-0.0254334 0.586359 0.078543
-0.0231667 0.571257 0.0790337
-0.0122827 0.531055 0.0807508
-0.00606091 0.531146 0.0812758
0.0738784 0.461122 0.0468323
0.0787669 0.456104 0.0428643
0.0738784 0.461122 0.0468323
0.0687553 0.476245 0.0506792
0.0715843 0.491427 0.0478117
0.0652227 0.49138 0.0531832
0.0638668 0.481263 0.0546472
0.0679344 0.511615 0.050255
0.0574537 0.551967 0.0578275
0.0558633 0.551955 0.0591704
0.0599823 0.511556 0.0569694
0.054742 0.531732 0.0607557
0.0678828 0.582366 0.0480638
0.078129 0.552119 0.0403702
0.0681174 0.57226 0.048185
0.0568673 0.577231 0.0575246
0.0568673 0.577231 0.0575246
0.0738269 0.531873 0.0446412
0.0399592 0.551838 0.0725992
0.0365438 0.56192 0.0751637
0.0463208 0.551885 0.0672277
0.0424363 0.582178 0.0695498
0.0816305 0.58211 -0.00977241
0.0816305 0.58211 -0.00977241
0.0805792 0.582191 0.00267234
0.0807558 0.567047 0.00492825
0.0809904 0.556941 0.00504944
0.0811049 0.582151 -0.00355003
0.0813394 0.572045 -0.00342884
0.080055 0.567101 0.0132248
0.08064 0.556968 0.00919769
0.0807587 0.536784 0.0135883
0.0794756 0.516709 0.0345719
0.079884 0.521721 0.028289
0.0800592 0.521707 0.0262148
0.0806442 0.511574 0.0221878
0.0808194 0.511561 0.0201137
0.0774832 0.587475 0.0378719
0.0779509 0.582395 0.0337842
0.0797625 0.572167 0.0152383
0.0805325 0.456102 0.0394473
0.0795943 0.496525 0.0389626
0.080411 0.506549 0.0263966
0.0801779 0.501523 0.0306055
0.0427593 0.581083 -0.0741457
0.0442249 0.576072 -0.0725638
0.0604595 0.571401 -0.0534878
0.0601011 0.531033 -0.0551459
0.0574158 0.530971 -0.0583267
0.0620482 0.561348 -0.0519143
0.0720617 0.536354 -0.0408241
0.0694995 0.53125 -0.0440133
0.0637599 0.546252 -0.0503494
0.0767047 0.511236 -0.0360953
0.0669373 0.526146 -0.0472025
0.0788871 0.586961 -0.0311971
0.0790102 0.581919 -0.0312056
0.0797483 0.551666 -0.0312564
0.0826797 0.541644 -0.0280926
0.081337 0.541613 -0.029683
0.0829257 0.531559 -0.0281095
0.082332 0.445781 -0.0314342
0.0859908 0.461 -0.0266377
0.0787855 0.481014 -0.0345557
0.0758542 0.491036 -0.0377195
0.0730459 0.496016 -0.0408918
0.0850065 0.501337 -0.02657
0.0808556 0.506287 -0.0313326
0.0769508 0.501152 -0.0361122
-0.0245542 0.59484 -0.0826901
-0.0226216 0.59974 -0.0824918
-0.0128868 0.619393 -0.0815294
-0.0133895 0.6533 -0.0813229
-0.0252005 0.638435 -0.0824246
-0.00530009 0.648678 -0.0806769
-0.00530009 0.648678 -0.0806769
-0.0196182 0.667665 -0.081741
-2.9225E-4 0.716659 -0.0797573
0.00185578 0.707027 -0.0796474
-0.00565916 0.672898 -0.0805294
0.00221484 0.682807 -0.0797949
-0.0243451 0.715993 -0.0817838
-0.0143949 0.721114 -0.0809099
-0.0103861 0.721225 -0.0805721
-0.00859712 0.735812 -0.0803148
-0.0200491 0.696728 -0.081564
0.0294866 0.736868 -0.0771061
0.0158866 0.707416 -0.0784653
0.0117342 0.716992 -0.078744
0.00593641 0.702294 -0.0793391
0.0120214 0.697617 -0.078862
0.0141695 0.687985 -0.0787521
0.00557734 0.726513 -0.0791916
0.0135232 0.731579 -0.0784866
0.0135232 0.731579 -0.0784866
0.0115906 0.72668 -0.078685
0.00772538 0.716881 -0.0790818
-0.0759202 0.623421 -0.0413648
-0.0774014 0.608896 -0.0400213
-0.0697898 0.628339 -0.0465731
-0.0651779 0.628402 -0.0504681
-0.0729952 0.662141 -0.0440819
-0.0729578 0.652472 -0.0440518
-0.0591036 0.647824 -0.0557216
-0.0669021 0.676729 -0.0493204
-0.0548094 0.730078 -0.0598726
-0.0577905 0.705862 -0.0572006
-0.0639397 0.705779 -0.0520074
-0.0778499 0.724932 -0.0403828
-0.076294 0.720118 -0.0416661
-0.0670329 0.710573 -0.0494258
-0.0762379 0.705613 -0.0416209
-0.0624771 0.725139 -0.0533659
-0.0745885 0.676625 -0.0428288
-0.0762005 0.695943 -0.0415907
-0.0700327 0.691192 -0.0467689
-0.0348434 0.735183 -0.0767657
-0.036362 0.730327 -0.0754523
-0.043955 0.706049 -0.0688854
-0.0455483 0.720533 -0.0676323
-0.0424738 0.720575 -0.0702289
-0.049992 0.676957 -0.0636018
-0.0469548 0.686669 -0.0662286
-0.0517722 0.739789 -0.0624993
-0.0471043 0.725347 -0.0663491
-0.0831467 0.73541 0.0217401
-0.0824493 0.730471 0.0137354
-0.0815824 0.725506 0.00372581
-0.0807341 0.725375 -0.00629887
-0.0807528 0.73021 -0.00631394
-0.0810734 0.725427 -0.002289
-0.0814702 0.696497 0.00381619
-0.079962 0.701097 -0.0142433
-0.0799247 0.691427 -0.0142132
-0.0788507 0.676766 -0.0261976
-0.0790203 0.676792 -0.0241927
-0.07853 0.681549 -0.0302226
-0.0802453 0.686644 -0.0101883
-0.0780757 0.739462 -0.0384231
-0.0783963 0.734679 -0.0343981
-0.0785286 0.725036 -0.0323631
-0.0804322 0.734993 -0.0103389
-0.0794142 0.734836 -0.0223685
-0.0777034 0.599279 -0.0359813
-0.0794545 0.657531 -0.0181176
-0.0790592 0.642975 -0.0220823
-0.0780973 0.657322 -0.0341571
-0.0560508 0.726942 0.0562624
-0.053456 0.727057 0.0593366
-0.0612009 0.712169 0.0503666
-0.0611221 0.683085 0.0508721
-0.0546746 0.697916 0.058305
-0.0651324 0.726538 0.0455025
-0.0663904 0.711938 0.0442181
-0.0702694 0.706917 0.039691
-0.0702431 0.697223 0.0398595
-0.0701906 0.677833 0.0401965
-0.0753539 0.667908 0.0342165
-0.0754064 0.687297 0.0338795
-0.0688801 0.673044 0.0418179
-0.074214 0.726133 0.0347426
-0.0755114 0.726076 0.0332055
-0.0819064 0.691856 0.0261096
-0.0716193 0.726249 0.0378169
-0.0728904 0.716496 0.0364483
-0.0791279 0.624109 0.0303634
-0.0765594 0.633919 0.0332691
-0.079141 0.628956 0.0302791
-0.0727066 0.648634 0.0376278
-0.0713699 0.63415 0.0394176
-0.0713699 0.63415 0.0394176
-0.0766381 0.663003 0.0327636
0.0164255 0.733981 0.0780895
0.00864141 0.714263 0.0779641
-0.00556456 0.728496 0.0763697
7.98906E-4 0.699418 0.0777012
-0.00922312 0.699141 0.076857
-0.0114027 0.713707 0.0762757
-0.0152947 0.703848 0.076213
-0.0369346 0.669119 0.0753182
-0.0268542 0.664522 0.0762999
-0.0188949 0.669618 0.0768378
-0.0297342 0.737578 0.0740686
-0.0354555 0.713041 0.0742495
-0.0274379 0.713263 0.0749249
-0.0313883 0.708278 0.0747247
-0.0155866 0.728219 0.0755255
-0.0196538 0.732982 0.0750503
-0.0283332 0.6206 0.0773686
-0.0302792 0.61567 0.0773372
-0.0384136 0.625196 0.0763868
-0.018603 0.645248 0.0775253
-0.0407099 0.649511 0.0755305
-0.0386471 0.644693 0.0758368
-0.030863 0.664411 0.0759622
0.067159 0.7347 0.0409582
0.0596005 0.729696 0.0475932
0.0524257 0.709995 0.0546593
0.0517862 0.734492 0.053941
0.0572933 0.700258 0.0510517
0.0416647 0.709849 0.0637472
0.0391018 0.69021 0.0669184
0.0403832 0.70003 0.0653328
0.0301339 0.680286 0.0749954
0.0315433 0.685207 0.0735535
0.0472998 0.670716 0.0610016
0.0424322 0.680453 0.0646092
0.0440973 0.675574 0.0634545
0.0239872 0.739017 0.0771664
0.0252663 0.690023 0.0786029
0.0251383 0.694922 0.0784593
0.0355156 0.709766 0.0689403
0.0303873 0.611674 0.0783049
0.0283384 0.631251 0.0790285
0.0444811 0.660876 0.0638855
0.0266732 0.636129 0.0801832
0.0265453 0.641029 0.0800395
0.0821856 0.601768 -0.0245107
0.0805909 0.621483 -0.0146055
0.0803535 0.640988 -0.0207398
0.0773847 0.665781 0.00317006
0.0777409 0.660859 0.001195
0.0784365 0.655885 -0.00478994
0.0787758 0.655833 -0.00879981
0.0762482 0.700027 9.56E-4
0.0749589 0.729429 0.00278169
0.0757564 0.743909 -0.0133474
0.0761127 0.738987 -0.0153225
0.0756376 0.729325 -0.00523806
0.0760107 0.719533 -0.00517831
0.0790135 0.685 -0.0250186
0.0727365 0.734639 0.0268111
0.0723633 0.744431 0.0267513
0.0734151 0.734534 0.0187913
0.0764856 0.680522 0.00709031
0.0761124 0.690314 0.00703056
0.0745347 0.705158 0.0189706
0.074874 0.705106 0.0149607
0.0444338 0.61064 -0.0710526
0.0470538 0.654636 -0.0662309
0.0463471 0.678982 -0.066114
0.0427377 0.669071 -0.0707721
0.0466298 0.669244 -0.0661607
0.0490832 0.674229 -0.0630631
0.0528592 0.723152 -0.0566809
0.0528592 0.723152 -0.0566809
0.0568674 0.674575 -0.0538404
0.0493659 0.66449 -0.0631099
0.0416069 0.708024 -0.0705851
0.0525766 0.73289 -0.0566341
0.0398602 0.678694 -0.0737996
0.0695838 0.728772 -0.0366749
0.0704571 0.743437 -0.0350676
0.0626476 0.69921 -0.0460379
0.0640863 0.694399 -0.0445241
0.05661 0.728194 -0.0520461
0.0615168 0.738164 -0.0458509
-0.0268699 1.04433 -0.0801164
-0.0236159 1.07877 -0.0793693
-0.0128276 1.07884 -0.0784596
-0.0129253 1.08867 -0.0783328
-0.0164237 1.07882 -0.0787628
-0.0164726 1.08373 -0.0786994
-0.0293034 1.10825 -0.0794438
-0.0220134 1.09846 -0.0789641
-0.0238114 1.09845 -0.0791157
-0.0135607 1.15261 -0.0775085
-0.0134141 1.13785 -0.0776987
-0.0205574 1.13289 -0.0783686
-0.0170591 1.14275 -0.0779386
-0.0202153 1.09847 -0.0788125
-0.00792212 1.12805 -0.0773707
-0.00782437 1.11821 -0.0774975
-0.033486 1.16725 -0.0789862
-0.0352352 1.16232 -0.0792012
-0.0244957 1.1673 -0.078228
-0.0350397 1.14265 -0.0794548
-0.026196 1.15745 -0.0785065
-0.0208507 1.1624 -0.0779882
-0.0276031 1.1181 -0.0791653
0.0168598 1.16754 -0.0747407
0.0150617 1.16753 -0.0748923
0.0116122 1.15275 -0.0753858
-0.00597744 1.1133 -0.0774092
-0.00422825 1.11823 -0.0771942
-0.00617294 1.13298 -0.0771556
-0.00291894 1.16742 -0.0764085
-0.00801987 1.13788 -0.0772438
-0.0770116 1.16193 -0.0455905
-0.0742544 1.16196 -0.0479189
-0.0742544 1.16196 -0.0479189
-0.0686913 1.15709 -0.0526392
-0.0602244 1.1375 -0.0598781
-0.0604688 1.16209 -0.0595611
-0.0660808 1.17187 -0.0547774
-0.0577117 1.16211 -0.0618895
-0.0533316 1.13756 -0.0656992
-0.0504768 1.12775 -0.0681545
-0.0546613 1.13263 -0.0645984
-0.0546613 1.13263 -0.0645984
-0.0405336 1.09834 -0.0766844
-0.0405336 1.09834 -0.0766844
-0.0432418 1.09339 -0.0744194
-0.0571252 1.1031 -0.0626504
-0.0572229 1.11293 -0.0625236
-0.0573207 1.12277 -0.0623968
-0.0452557 1.15731 -0.0724309
-0.0363979 1.09838 -0.0801771
-0.0422054 1.12783 -0.0751398
-0.0380697 1.12787 -0.0786324
-0.0549057 1.15722 -0.0642814
-0.0521486 1.15725 -0.0666098
-0.0495381 1.17203 -0.068748
-0.0494892 1.16711 -0.0688114
-0.0371899 1.03935 -0.0797737
-0.0400937 1.05407 -0.0772551
-0.0486094 1.07859 -0.0699527
-0.0485117 1.06875 -0.0700796
-0.0374832 1.06885 -0.0793933
-0.0445715 1.08846 -0.0733186
-0.0431441 1.08356 -0.0745462
-0.0838295 1.16174 -0.0114413
-0.0836819 1.15682 -0.0132581
-0.0841326 1.16172 -0.00784519
-0.0838811 1.09771 -0.0116843
-0.0844715 1.11738 -0.00441725
-0.0832391 1.14207 -0.0187083
-0.0830836 1.147 -0.0204877
-0.0835462 1.13713 -0.0151309
-0.0832471 1.13222 -0.0187457
-0.083259 1.11744 -0.0188017
-0.0823615 1.10272 -0.0296462
-0.08357 1.10758 -0.015243
-0.0835581 1.12235 -0.0151869
-0.083259 1.11744 -0.0188017
-0.0821742 1.14705 -0.0312761
-0.082932 1.14701 -0.0222858
-0.0815117 1.02888 -0.0407149
-0.0817949 1.0535 -0.0370253
-0.0816156 1.08798 -0.0386926
-0.0817711 1.08305 -0.0369132
-0.0551734 2.56053 0.00391344
-0.0553623 2.56037 0.00612338
-0.0544931 2.57733 0.00957481
-0.0524908 2.59521 -2.33375E-4
-0.0504124 2.63752 0.00950019
-0.0517352 2.59584 -0.00907312
-0.049997 2.62975 -0.00217025
-0.0346482 2.50628 0.0355032
-0.0380667 2.52386 0.0314538
-0.034325 2.54058 0.035864
-0.0325697 2.57472 0.0379168
-0.0308145 2.60885 0.0399695
-0.032801 2.62627 0.037612
-0.0437031 2.61041 0.0247421
-0.0427098 2.60171 0.0259208
-0.042271 2.61024 0.026434
-0.042271 2.61024 0.026434
-0.00168669 2.56489 0.0415712
4.16375E-4 2.62458 0.0450782
0.00645769 2.60726 0.044625
4.16375E-4 2.62458 0.0450782
-0.0124566 2.57387 0.0411575
0.0168494 2.56495 0.0320868
0.009452 2.54771 0.0368181
0.0108507 2.53923 0.0348838
0.0360374 2.60967 -0.00288844
0.0339351 2.57443 0.0102156
0.0347029 2.59182 0.0069785
0.0337462 2.57427 0.0124256
0.0341363 2.59135 0.0136083
0.0347215 2.61697 0.0153824
0.0339536 2.59958 0.0186196
0.0349042 2.60874 0.0103712
0.0318079 2.50565 0.0121144
0.0331548 2.54027 0.00785013
0.0325882 2.5398 0.0144799
0.0243097 2.6205 -0.0288545
0.0271738 2.62016 -0.0254705
0.0284215 2.61142 -0.0245098
0.0355818 2.61055 -0.0160497
0.0352131 2.59343 -0.0175123
