ply
format ascii 1.0
comment VCGLIB generated
element vertex 805
property float x
property float y
property float z
element face 0
property list uchar int vertex_indices
end_header
-0.025475281259719186 13.635794890738982 -0.010445711698185978
-0.09073519015714143 13.618836217423208 -0.078238209381732
-0.1254779771773559 13.619842578046061 0.008436563041850236
-0.19199102264062304 13.792149102351242 -0.020902991294928758
-0.27506602996762863 13.764978689080174 0.0909636899060247
-0.26976511564471506 13.875534271599204 0.12274248804313925
-0.3498476175447581 13.984614660559506 0.06154471033198457
-0.3626607539563407 13.818562291637127 0.12903999881938347
-0.35552637555015837 13.942071331623026 0.1849311929559464
-0.3944139957446552 14.075550033838727 0.16340686649305128
-0.40463955523731376 14.105057214614803 0.1786431227447691
-0.4945699414481928 14.056794884299997 0.1557285682348014
-0.4714516731432496 14.10367478227614 0.22256506950839391
-0.49452085265034934 14.148988303660147 0.24332678744436712
-0.5052615070723921 14.174902458912971 0.2639710238826646
-0.5851136277769792 14.162886595840234 0.20643377541534094
-0.6194982456720642 14.44938244692053 0.25180639938326776
-0.6734861541388678 14.340939561365351 0.2667802212052158
-0.6523391041032391 14.358639624604834 0.31413700160119623
-0.628433410649566 14.342216674651917 0.30922923289333165
-0.6794675452326375 14.389910903547435 0.3082709146880594
-0.7496792233536969 14.509530388292289 0.28353047229134015
-0.7223225137049342 14.446497970891997 0.3739956573958519
-0.746080426910379 14.43612451956272 0.3624654263094222
-0.7892634957724304 14.546377996832453 0.3187211857438594
-0.8067654005338513 14.648154165586135 0.3398200336598798
-0.834249354168753 14.53273958200021 0.3798329276054978
-0.8720680312737153 14.797830134862526 0.4285130636912676
-0.8838195505031394 14.718854378881144 0.39168667316625483
-0.8491625233562135 14.701686399697618 0.4641247356692118
-0.9208719344425641 14.902864812503482 0.48277945719405346
-0.8577286242288535 14.849989226637046 0.405004833054241
-0.8800479723668062 14.795256419446762 0.4135056215397264
-0.9360427091946243 14.992496174597228 0.48207435174808916
-0.9960018846302754 14.974400633424052 0.4734000535817175
-0.9953554780311127 14.996585181079656 0.5378453836317212
-1.0121094903887775 14.96231011954574 0.5122372009855825
-1.029371517141284 14.981650727518826 0.5014546265636687
-1.0420786512334403 15.121621165032337 0.47611227611878865
-1.033940661150938 15.141498139943467 0.49472439859469125
-1.0877554024871678 15.106103167508248 0.512484125818711
-1.0513107310932857 15.131622944599016 0.4985351149783076
-1.050499607003164 15.290949784187475 0.5090834128766764
-1.0674099480688384 15.23212011432219 0.5271736599581922
-1.0812326017041471 15.265889188090709 0.45237186637521176
-1.0593752341222051 15.234834426755958 0.5323816832048563
-1.052785504539278 15.247888882324853 0.5662241752995238
-1.0591972152184108 15.217188971878972 0.5409143883112191
-1.0840042698143664 15.402743717385711 0.5327511745010658
-1.1345065066535247 15.349242815690525 0.5439311305390562
-1.10635450946344 15.320237020240365 0.5257836261554535
-1.1396456713343783 15.55048958877925 0.5633326140306907
-1.159537244259202 15.492362688607972 0.5552157445567043
-1.1881481492161003 15.655219418763501 0.6023885076310813
-1.1826301889383886 15.663572462668832 0.6011561493933015
-1.1575860360608934 15.642632342835308 0.5344209403641891
-1.1820414222953095 15.69160200880127 0.5557990266308811
-1.2358158095729854 15.806703302654533 0.6585019963610602
-1.2073833265796385 15.704897804987027 0.599109853138768
-1.2598523079191188 15.751801635231331 0.6152382270695843
-1.2571591812317557 15.917404618544365 0.6206782834173873
-1.304227682519048 15.901483955561018 0.6491263095348031
-0.04023016933758885 14.390522043652682 -0.05086959666636041
0.014835711505364228 14.338897349491997 -0.05498379933929078
0.018314602582911173 14.3421122674892 -0.0695219551435518
0.005861201298864537 14.319260506854105 -0.07416841034328209
0.09155038671819854 14.469361595461415 -0.10558408253564266
0.033596418043205865 14.443279908834963 -0.11096677799312873
-0.0010263687398007829 14.492121801133207 -0.020352336152400792
0.14371074726470612 14.563554055187197 -0.06630308551252578
0.13893804520598735 14.530353484698534 -0.09782501787865241
0.1421158610362011 14.554654912131554 -0.07218496360203804
0.14890634388264437 14.541841116706149 0.010896922426696817
0.17290205120347285 14.539585898130579 -0.021266143855743814
-0.021410097255724386 14.701051989288578 -0.09830416505515382
0.1781256023448293 14.620335989807556 0.02879758589219343
0.1847907955457055 14.662764444271682 0.06282644837578927
0.25003135150000794 14.880704119851229 0.007443574450715602
0.2443650323813866 14.779572436689236 0.049741237825741205
0.2589492398260784 14.798140143959763 0.009550920590618144
0.29143222822117604 14.823785488632113 0.016829356750738718
0.264063082032383 15.063570127100633 0.05336566990954479
0.2781545884553109 15.062131987441248 0.05801013389181029
0.38701090499945606 15.013886319120097 0.10905538469147119
0.3944757561204789 15.058615265842144 0.08637402666962109
0.375395664893807 15.166830301521534 0.1497164434378672
0.33083814235856474 15.07416826360966 0.14136154454548028
0.41462535497996816 15.308165290785816 0.1370802343126824
0.4065290002031217 15.307627579899766 0.11291381817031641
0.43699386047359184 15.284694558525086 0.14111536591247492
0.46872077221549296 15.40637607538653 0.08555366299679837
0.49087514984603164 15.539487184956469 0.11030960848214623
0.5370152643238945 15.521873983021269 0.08828120481754567
0.4203502809167097 15.440070196812226 0.11680758341968815
0.5108635797904194 15.475486040758444 0.1778483183624754
0.5244632978448354 15.546251838649937 0.1741810267645557
0.5503517414969386 15.52016516270956 0.12357775456304637
0.563203872451579 15.639549233789031 0.13271041762387267
0.5554618797762401 15.637296271991612 0.11159923104239544
0.5945178112741535 15.597043789209314 0.16574365089409598
0.5464697080056399 15.58170706828373 0.16522047515355887
0.6048514403189529 15.626633060465155 0.14273377119971634
0.588907225509248 15.611365118024429 0.16096948360359273
0.5297799694936767 15.610733461809385 0.19816763622262742
0.558575073028298 15.600601669122678 0.12008468705999985
0.5513155074866535 15.752235145832095 0.16501663540443237
0.5991292983977533 15.738408132757467 0.17454086370030597
0.568447982380907 15.90506162156373 0.15700861457772805
0.5686395834270431 15.8587749878663 0.21624190275822291
0.6010007612068285 16.0174336586174 0.1948906809430755
0.6140533335475709 15.9777892080468 0.171029400941714
0.6188279974821475 16.12905980139142 0.12822986698368116
0.615381339067377 16.113974028596285 0.2190252009360982
0.5782376726343751 16.070099004335844 0.23630687166922817
0.6315936577305206 16.247079786820258 0.1928357334673167
0.6883420873959182 16.26013244070372 0.17187205305196568
0.6675355918848901 16.350823980702124 0.14022064747380106
0.6504172039942415 16.355952251265744 0.22159048729472983
0.662954331603349 16.36146334661162 0.1679975270321054
0.6848345100503804 16.392902447051394 0.14525696723843867
0.6784483381402027 16.603279831199927 0.14936315021848962
-0.05384843429290529 15.285850702455654 -0.13944784232008336
-0.07615763189555157 15.248512302505496 -0.10670819840386526
-0.05321912094754329 15.33619465803648 -0.10543537172375032
-0.038381098558778096 15.382940816008096 -0.10608581477939488
-0.025175623407973025 15.370519650548493 -0.11484248818561851
-0.03913941518816693 15.472830848042948 -0.07350763721997948
-0.05759627103210559 15.516037672894265 -0.10511053411616049
-0.03240374457708392 15.550278150029484 -0.07674278628835957
-0.07993909291701948 15.872435431423098 -0.13630560910709372
-0.05334726603537048 15.945569109130016 -0.09321545669570025
-0.058242649533886456 16.046963990813357 -0.11521372843186774
-0.07897859560078668 16.038029172795532 -0.1248027872707076
-0.027729833331279992 16.361004916731883 -0.0983270874078181
-0.08622512078869873 16.376339754047926 -0.06484087221839192
-0.048695336634004445 16.388549987701143 -1.0341763091385736E-5
-0.08663362589524734 16.38203981000441 -0.044426262488849906
-0.08732892177948699 16.508817489909134 -0.12224962499764848
-0.07880828044905382 16.417663333097973 -0.1090434305244271
-0.033971625232366354 16.455043245053204 -0.06922481854165548
-0.07106515041588829 16.5449481492869 -0.042172032280077716
-0.15813584202962216 16.910496907003782 -0.09963099992334773
-0.16568631964814576 16.96439983174374 -0.08948466838145146
-0.15800468080546057 16.936686607466182 -0.08588835511789733
-0.123959367927514 16.975453430517057 -0.0677496680863516
-0.10226695577024539 16.954630151883443 -0.1044815071102095
-0.0975107840176781 13.19452059934604 -0.09490996577641787
-0.08541986744187607 13.212653291281201 -0.11370216113141532
-0.024882823744293337 13.18503257252862 -0.10746153890200044
-0.014357367852001143 13.382246425611765 -0.13198778695470384
-0.061474119826838175 13.22110453850587 -0.11935368264236434
-0.10572224692608431 13.23362463253342 -0.1065371309095236
-6.995629582030126E-4 13.362008290033858 -0.14112770326411103
-0.015496388873446343 13.379492931147524 -0.14928723679768124
-0.052469461573065534 13.310504658293313 -0.10380085581681714
-0.03211996219767095 13.449296347300342 -0.11629942331435664
-0.014615451373099627 13.383060678166915 -0.13547916770144577
-0.04555024325160488 13.287655286324899 -0.12077538232545394
1.0621861712588332E-4 13.495507195557217 -0.12278502719045309
-0.0032288884444368815 13.485060648489231 -0.13608731956743245
-0.05759801749220926 13.423269603997863 -0.10550046522108696
-0.011471490389091153 13.258422789431577 -0.11060017527161974
-0.005206729887874012 13.362537777290967 -0.13026515588665163
0.014053732429131084 13.302118852440794 -0.13976021136622127
-0.012296920757754879 13.366806455207074 -0.12749366299034173
-0.05981776638092064 13.625398706275496 0.02499736483113476
-0.09478979279885755 13.605134815881181 0.004297572897150881
-0.0316067925770233 13.551982657487807 -0.02375640386395663
-0.07955240366495761 13.493916237486706 0.03929810048861837
-0.07702705257016684 13.47018099534623 -0.04006780965038893
-0.06903155459519913 13.459475021076715 -0.008594110609271236
-0.11404427874227392 13.421067397763037 -0.01567535028829491
-0.07645107422688896 13.256314409058986 -0.017904955318127753
-0.104791829895662 13.392924374132107 0.02244037537331598
-0.0726870463380091 13.413759559791673 -0.00883347505744716
-0.08120031426893988 13.205333320676031 -0.013134733102293206
-0.09296164995841465 13.355017818150866 0.04348334320203928
-0.09938576907015305 13.209856349266285 -0.020127910025141183
-0.0836658609779126 13.216915744000744 -0.017124899377392012
0.023784507365581936 13.603854629458024 -0.026408579589285757
0.050434468836905194 13.471456536052164 -0.029949680590052815
0.028796900351783134 13.48304932333258 -0.005457107827332308
0.004637833957743517 13.481755357640985 -0.0015289149765081722
0.016759687639905048 13.46702834791621 -0.0010807945265824282
0.057421694936528093 13.503451058673091 -0.031045053165534207
-0.019253287339965015 13.38041108760871 0.02626148342871727
0.023690361334981883 13.297122951834497 -0.01050977788927682
-0.01536108218160625 13.334162437367615 -0.003207796289847683
-0.022797550197367657 13.21671864122916 0.04730251340795909
0.027868364715547954 13.369868798413714 0.0012909270943505125
0.023321906450679122 13.355482644149136 -0.019041833421489417
-0.0016682753928686529 13.327475177413266 -0.10373205777610336
0.031292005104875356 13.19936349015678 -0.06770436676280826
0.011400932705379233 13.388817157046299 -0.05716191467983789
0.01152835691389272 13.374718543938117 -0.060492159170813714
0.05656017254343934 13.392243399345016 -0.028802871125035417
0.02139181176784125 13.447275472270814 -0.038181791833045584
0.0032485333812802674 13.589111675285748 -0.026405851532281588
0.040016263674782185 13.548659190193167 -0.023072000729573716
0.054395539247561124 13.524285937531243 -0.030866804098806575
0.03434783001928959 13.491578062609042 -0.07720784830378773
0.02676986410830539 13.175505630707896 -0.010515235765120355
-0.08372971466750448 13.738550667424697 -0.1301331892519871
-0.0670123058782162 13.704855319153749 -0.13741074534996564
-0.04961711647744209 13.822242226045955 -0.1115159752145414
-0.026507561595427928 14.013558175361558 -0.14161269434283325
-0.0315895242013049 13.975289669677203 -0.1452269185371093
-0.002507029270646532 13.741421481103952 -0.1553977078438026
-0.04313587773031843 13.710155403605201 -0.12113152159532484
-0.022571300066228164 13.831011590952276 -0.13063983434833729
-0.10652515435642015 14.019677797238389 -0.012849050798147306
-0.06804160466850752 14.016821662081938 -0.03655102746909369
-0.09068828645691597 14.073162630241127 -0.012084184506281523
-0.10346663934361902 13.918140133840422 -0.03446773575312572
-0.11691981441333059 13.912096268845211 -0.04433290009549561
-0.1151385413948972 13.830376055691126 -0.04788333425453919
-0.09845020489377322 13.840898694512536 -0.02317361087729411
-0.09242575645789222 13.75912858052787 -0.09803357712655487
-0.07974145044157999 13.77556355357933 -0.07697973008696007
-0.0973225747851024 13.796158093626655 -0.0824408365249521
-0.09976996002357294 13.765274416495663 -0.05996940730634238
-0.07927463074862681 13.854248836296659 -0.06484935299346253
-0.10184032816091941 13.791408188116081 -0.0616141455172983
-0.06116254331490887 13.762995542813695 -0.018842914320592347
-0.08922836508221747 13.716429578756738 -0.020625240369578666
-0.1004425933982407 13.720084488377458 -0.012148227555296614
-0.08490001366255866 13.79308611782885 -0.00587453857082957
-0.06732614329948727 13.820503907148414 -0.02485745814106909
-0.09223962173176664 13.78935327468769 -0.011812321401402502
0.01765283162584749 13.993142097147752 -0.033257093357537515
0.001260185390993665 13.980363172375379 -0.03810742306142703
-0.023445634532160566 13.890664118307747 -0.02246242087403161
0.005011440416693377 13.914173341514152 -0.03758100240757276
0.002606640859322367 13.821978158208895 -0.03038568472120589
0.004587496075359111 13.857469753175591 -0.021005663710411168
-0.05387848489764261 13.765750195437498 -0.003208834707163658
-0.02051307396713346 13.78739306113563 -0.02882185302833304
-0.056890394193390134 13.764239701762962 0.0029181909383545882
-0.029023739582360996 13.817926256693188 -0.018991938888239763
0.03922556384807714 13.68491975240945 -0.015377557820913849
0.04117650867838041 13.753101827533511 -0.02443915850260035
0.008298569442642956 13.718108834303896 -0.02053072812899488
-0.0066177387778977165 13.820193628898163 -0.023330386100325194
0.006661429272936453 13.773497904110014 -0.01695462309722809
-0.002215520044165366 13.667382494281881 -0.10440413789097777
0.01792223906512298 13.795449503071398 -0.11993625059487358
0.04175139016525168 13.855533302447004 -0.03629097554367236
0.009679112120110323 14.070450737279064 -0.051615450057523944
0.020434530745480954 13.948190367380441 -0.05946735231402568
-0.009333022703227268 13.880200225884622 -0.0871182180505221
-0.013634463966016752 13.946634886690694 -0.08294233203307542
0.030998255072057317 13.693047338692836 -0.043794638202732675
0.030597408611710605 13.737361973490517 -0.06322933840969287
0.023092068496804636 13.701380919751067 -0.08211678563525397
0.015886454626370564 13.724264631063818 -0.07068776607531056
0.004783541267467532 13.716467415856643 -0.057475261189051954
0.06370402831348665 13.867891916589775 -0.041669277272281036
-0.11260389659840513 14.231733205654969 -0.11308337456609997
-0.06758658183465467 14.142398164884087 -0.13207689524450755
-0.07481369314020107 14.136313655569914 -0.12246103699510115
-0.023833758228785175 14.342692029952303 -0.1408955152183502
-0.043322750672457846 14.20777637089433 -0.16265961284060282
-0.055227626508430175 14.477793935173098 -0.13529532399226027
-0.04843730741757979 14.429927314950543 -0.12850146081437924
-0.032717934210262783 14.440865143175763 -0.17079414857526298
-0.013228557390421464 14.361887685406789 -0.1709916146662347
-0.0037320119293199963 14.400754225776891 -0.17657650729224877
-0.016355412184538537 14.175999822527302 -0.14796840835654812
-0.02157472827141539 14.302945567635634 -0.14377361477195888
-0.020879936708026486 14.233678641461031 -0.14498469033033462
-0.034248319708309015 14.254432115141107 -0.12994047490052454
-0.04142724823805716 14.221887867137456 -0.12776925615750123
-0.08380011018146928 14.456624201338817 -0.029213013383935157
-0.09519706803305292 14.39487510101444 -0.0333482938899787
-0.10057702974647552 14.247420848215482 -0.07212035991685585
-0.09345241095452231 14.259659917541486 -0.06766198905772056
-0.06874786131076736 14.331198815934671 -0.0765545443246859
-0.09274582006606251 14.236630891242159 -0.05120965611868212
-0.0977420838692218 14.339832276906685 -0.0634783795081229
-0.11190911977474087 14.125189369864069 -0.09215193273732991
-0.12116460223095986 14.271343008063774 -0.09291501016844621
-0.07640376831141232 14.183672324568327 -0.040297499829465455
-0.10683209308310804 14.163659801845917 -0.0285913460905511
-0.07679496613585979 14.136344612672595 -0.04516493726275829
-0.10650333963909217 14.177753935948546 -0.05062696194871549
-0.08498829727423705 14.1638542681725 -0.057527509629426425
0.0048637813042501 14.454915448151482 -0.07131215027763661
0.01931258675356295 14.43715378604102 -0.07335707490821254
-0.030447305226736433 14.408377422393606 -0.055198424479979545
-0.019957427208865904 14.2350712814422 -0.05850394494555332
-0.024772306916537316 14.234238901890631 -0.04881513903924432
-0.0013200981124807804 14.238953617621908 -0.05835641979261986
-0.0011371857746153569 14.20295193474732 -0.061603961215221895
-0.07289659976329735 14.174499353924608 -0.014728234990174
-0.05150594425920407 14.156816813397816 -0.022681093079296135
-0.03250503991201047 14.180646315027033 -0.049282689957225845
-0.011491146794627836 14.200897536156914 -0.04238179768939873
-0.004053633274791853 14.17757569839137 -0.052134976397955626
-0.015341471987965002 14.131287389161697 -0.028132424884007693
0.013310202622892106 14.211760409556897 -0.04806350553388031
-0.012676243375642094 14.168597392895022 -0.12173253555146361
-0.027732485826240525 14.208392318629244 -0.0982291767145512
-9.31596490562776E-4 14.280571254723414 -0.12053955639804155
-0.020016874192589264 14.176624010050428 -0.10278484517584995
0.02383216497616636 14.147089974047551 -0.10372861855068588
0.0022420645840149625 14.177371955087521 -0.09254560361638856
0.030374681494393627 14.211932701992263 -0.09189806830347486
-0.0012150701020982833 14.450724514583829 -0.060771783137941446
-0.0038834307664158308 14.470440793580003 -0.07832742683188493
0.04411769108209697 14.194269662695502 -0.0623297308228342
-0.006367198404428915 14.129525890861743 -0.07981508131492367
0.0019397036201403252 14.222650150256962 -0.08077643018347427
-0.06484879376969198 14.665376429080075 -0.15777430718675894
-0.08495773449388029 14.66667568940941 -0.12351630274013638
-0.07700854939551495 14.742788671164789 -0.15886498455110573
-0.07647776054190956 14.70656187473386 -0.13384079746338032
-0.05281933283726492 14.783559947037247 -0.16858499765483187
-0.06193544969996311 14.761550811010874 -0.1315414685051864
-0.049740657471884366 14.758985378281093 -0.15715002194992406
-0.0798155532332414 14.671431057727398 -0.13106383125435717
-0.043767517442416644 14.663574613820089 -0.17238361473276756
-0.03603725945205411 14.840964440462473 -0.16704583263527165
-0.04483031988960345 14.859436440201934 -0.1619451008829063
-0.028588831194768082 14.59289130393507 -0.16566427929604866
-0.01947227433518915 14.64187146199918 -0.17011053027182058
-0.050015150580070215 14.723875513633722 -0.15031675805833075
-0.0992182377877484 14.824060777684952 -0.061440941997319184
-0.08766036535863996 14.818719532363298 -0.06661976897946412
-0.08502640061409934 14.913561431887436 -0.07192695314325444
-0.09892935859007429 14.761523622979361 -0.10064380496630661
-0.09761784550406023 14.663343471642525 -0.09326378365605482
-0.07944483096111267 14.691849479834998 -0.08671957369137437
-0.10071980184701401 14.544444699174667 -0.08158351911402122
-0.07768846589487544 14.656365050229763 -0.12959197158717095
-0.11257454187903505 14.57730689523482 -0.10542059382764214
-0.1061487938066272 14.645190775792358 -0.11038977822353536
-0.08696966350570895 14.66327066203528 -0.10558215967017132
-0.08199883189288294 14.629474932533148 -0.11907363580775038
-0.07655207103952061 14.568482047918659 -0.059099717103441717
-0.07350042239846283 14.59494837619229 -0.07736619728475683
-0.10791128385470111 14.640178264437525 -0.04735858102059478
-0.04157133476680208 14.692818369407037 -0.08349406561671574
-0.029202196824392054 15.007014166046847 -0.09857993726474366
-0.04597506426112993 15.040539495741344 -0.09984888792075937
-0.0034009386973836153 15.020444274433011 -0.10416547345229378
-0.043074716893393206 14.785990178870113 -0.11047262040099677
-0.047432637141369284 14.807184834663918 -0.06430049165800784
-0.07243513621808798 14.636528503685787 -0.04598248766156863
-0.06262660538629006 14.684133462569603 -0.07474925036954522
-0.050889994956067316 14.60015646575489 -0.05784318641805154
-0.050452333318842364 14.642767634094946 -0.05508568096033985
-0.05350616813731256 14.757012703240068 -0.052821873080077894
-0.056379349855391565 14.724314524471819 -0.07513045921868736
-0.04997574269860096 14.762390724643812 -0.09170537060447914
-0.009577192505402099 14.628019634372697 -0.07712812367001148
-0.022266701804826934 14.585081562356335 -0.06720367792913946
-0.002140303961603779 14.601587203203087 -0.1573466123622185
-0.01210882679152604 14.607909906994596 -0.15778970180320914
-0.014467302448195118 14.577494266123102 -0.14511465480131333
-0.006158313170018097 14.553717921227555 -0.13738696912250914
-0.008450314192466366 14.73094033519108 -0.1243260044731646
0.005773020343569947 14.745075245386486 -0.1103751485055574
-0.00945396756658893 14.841683803647923 -0.10863337839216118
0.018430066697289433 14.646260845524335 -0.09093415024040458
-0.0040527102508164424 14.549854914475837 -0.09890873189714898
-0.030628882336510316 14.743608700803893 -0.08348448176904542
-2.7012108182203107 13.082740952933948 -1.440255406397935
-2.648013079503949 13.00190405260522 -1.3950969343635724
-2.6557342934192993 12.982199736692268 -1.4084368738412847
-2.65921377554997 13.042018447750785 -1.4318802711996068
-2.73948845019539 13.098278274091559 -1.4116233401147205
-2.65055788294246 13.00364884687358 -1.4198923062225746
-2.6749151774658726 12.986117411345635 -1.3773467981520786
-2.7010394273899423 13.019031406202135 -1.3817636660911614
0.4904010308075222 13.003353202217184 1.3387525286930841
0.5593984286777867 13.096948562768308 1.4490896106819167
0.5731051607391574 13.08504684449162 1.4380522917469631
0.5492090430417349 13.086550787877817 1.449771020640166
0.5302147301998568 13.102417557635377 1.4155748869803215
0.5152943028445991 13.028272913489475 1.4730448956168531
0.4928106574279177 13.006752625788764 1.4388361483444316
0.503806534862379 13.025773155405133 1.4291100413699023
0.6201263380977535 13.065757399409136 1.44566164027686
0.5998876736076555 13.066678776584391 1.4873260499185488
0.5914299769360395 13.020569463443726 1.457452892946844
0.5837383497893059 12.970365752531201 1.4362900008341581
0.6355164689155801 13.199776829899687 1.595493275290845
0.6428788417162457 13.163985996067357 1.5298477592280992
0.5583803519028874 13.164549060284065 1.5324043955726212
0.5746676443863342 13.1773604466042 1.5302078609079401
0.556407196086718 13.188733588044395 1.5064296827576427
0.5659583677249401 13.137622676650642 1.5264440599219986
0.5768867951996007 13.166579842091165 1.553769660923873
0.5734976205487414 13.190963010907703 1.564806649038848
0.5874092414243122 13.089754855775773 1.5800147794328654
0.5548207381367586 13.142762706021001 1.5960118049304794
0.598740790919269 13.145487233408472 1.6004683371273531
0.6463128451451187 13.180918174068351 1.6009328485998349
0.6422142302473166 13.173438751383037 1.6015652084723073
0.6008988643681 13.089359800317762 1.5335637996059115
0.6467849909153762 13.30152552039029 1.6640988783053465
0.5708317703055954 13.299033718303864 1.717649188246092
0.6034958958598455 13.28584672047101 1.6919069776943854
0.5769882736302384 13.252484467089047 1.6963836738037057
0.6392719798141407 13.288367268268846 1.7307304428164723
0.6373328212747278 13.264879652751082 1.7457736447459524
0.6604728566934601 13.23420134919732 1.6765436147992574
0.6506749142994084 13.262261548882142 1.657689173314597
0.6534548338729037 13.280573766244016 1.7108689433958306
0.6668820089949522 13.296912118796056 1.7150372661257631
0.6452889042568524 13.27800204013785 1.6984691216294596
0.7442418897574123 13.564503210054488 1.867223554075851
0.7173099880579609 13.538545205218783 1.8352195677180507
0.6666035864587694 13.573266098197166 1.8769826414972866
0.6583772351192418 13.5441773300338 1.8586502431832284
0.6606406607006948 13.546316558694606 1.895065990692223
0.655841348898269 13.540001432673149 1.8209248762503967
0.6719022267737454 13.553861041702843 1.8647771083465796
0.6786192908605473 13.544254225596793 1.873280042814067
0.7166790938588864 13.57506246204343 1.918702686159047
0.6761175478245235 13.51888786044769 1.8939682400304336
0.6779887123974714 13.490073211533371 1.8942323751566956
0.6814662481158538 13.496955711726288 1.8881151389175803
0.6790789727813175 13.54754663047976 1.900501239730845
0.6982160475246413 13.507667176123112 1.8873833085345948
0.7220751504154006 13.481497662791172 1.836317558655529
0.7248383027424742 13.518552454030177 1.8637935071333387
0.7067522916271985 13.541529482805451 1.879304143540505
0.7141572853027571 13.522999128746976 1.8552636726619414
0.7053513357168992 13.493547675549562 1.8476907279660377
0.7584961083471634 13.674221122962763 1.959487595954224
0.7403642997850615 13.660174653452508 1.9621219564988335
0.7137838065051222 13.64772052863233 1.9063348815708057
0.7101926126219822 13.645814998597384 1.9019989659166028
0.7284945428563037 13.705611154932429 1.959351511629003
0.7239106497245956 13.679199769260354 1.912394290468931
0.6989576577141979 13.639443530760728 1.945915572590571
0.7113289108358257 13.699949098381794 1.9682877173804336
0.7293180479864388 13.740285727496008 2.045142322793173
0.7116474191763201 13.695802139545917 2.0372629781237106
0.8054588464463811 13.718045735984116 1.980314827852442
0.7485061974751291 13.595503887983197 1.9775612233399584
0.7696450302365525 13.668846286600417 1.955293333556503
0.8920640007786039 14.07655412778742 2.2524773853305358
0.8714512712223051 14.079458539214356 2.251119463253438
0.866864941375986 14.0887786174848 2.2839840271718717
0.8563575404827541 14.001705705223273 2.227398559907439
0.855413238270607 14.05956198486196 2.2415747351859534
0.847025551925403 14.019776258385116 2.2283304330757616
0.8579128061910521 14.116253213663986 2.3071572737310286
0.8366592017214044 14.0890754346637 2.3005796354565806
0.8466827383072824 14.097129407661091 2.307089910296939
0.8288602985348228 14.018021337377757 2.216100959060172
0.8369489600140886 14.019672020249665 2.219658710785517
0.8193078893579974 14.038807638562723 2.269790254768861
0.8382926483906551 14.006955317067662 2.2622160417455115
0.7974853642108415 13.97454530652846 2.2427391376574417
0.8733390778399343 14.035282774785168 2.2566878372888275
0.08723431113591701 12.987122396793296 -0.2883959866667913
0.12336451953851749 13.005887647538934 -0.2914030926245386
0.11489012254482589 13.01597291866261 -0.29310388506199064
0.11610178344414912 13.014583604386102 -0.3263025595880911
0.07538546221138173 12.989298526635137 -0.24891758507236994
0.15956081941434036 13.003666664698791 -0.39935143781644095
0.18585879899087934 12.969928401860942 -0.3064730902763699
0.14755824547989754 13.07768361221436 -0.45284116415743536
0.1174202532774421 13.050869665735089 -0.3874300295174776
0.22772363632670928 13.05535237358291 -0.4839313464424172
0.17185277360546053 13.053596286529373 -0.39244801766374815
0.1560840003703936 13.083947257769143 -0.3728978223364199
0.2246917279542234 13.002470543184328 -0.431992887481722
0.1758685609562811 13.013361131491154 -0.4058672872894072
0.12155690922196725 13.03022025233877 -0.4581255966216654
0.1155914443723858 13.00503407006524 -0.4277859756528881
0.1770833130147131 13.030366212874894 -0.5054533077335068
0.16914465870675388 13.195732395723521 -0.5133894869278662
0.1449200262019736 13.147169140572066 -0.5751572296928256
0.15410070333984746 13.182971098134487 -0.6296657278076193
0.11149577350266981 13.083213612744348 -0.5107663926288272
0.2809525455357676 13.16991936352633 -0.5528916777082792
0.1951924842279933 13.186670193354658 -0.486892916546467
0.26616650901419636 13.138679549414261 -0.5132389979175205
0.2129838401048329 13.083392911057128 -0.49274340041574105
0.1860168347188315 13.087780908166955 -0.5623695334759564
0.1752072773144453 13.068400996103653 -0.549119191632874
0.24311551001701037 13.286761205514 -0.733140440548831
0.22169872979420857 13.215102656157185 -0.6348824887924033
0.2597733647645235 13.286278800601657 -0.6305127654501688
0.30268625810700206 13.201479858853299 -0.5943199623542187
0.29015146912836004 13.248640068502963 -0.7336557064042865
0.30539200696950164 13.230700930285787 -0.6987000877724251
0.3341132932256909 13.200103064137275 -0.6130073454476173
0.26456242290285636 13.179135414869688 -0.6991581357816342
0.2594531904189487 13.193503804137313 -0.6994346476635124
0.27618854397320014 13.20614273264396 -0.7171537892838539
0.28549087969198844 13.194091957070855 -0.7241217247568759
0.27178589702110734 13.345200328254998 -0.7271435498426064
0.25983434120242993 13.317893310755068 -0.7811760083821774
0.23684371861697268 13.32539770272384 -0.7676582855386144
0.28251543625635067 13.302921997565718 -0.7342344207782238
0.2579920148112874 13.3332227157925 -0.7903077523871919
0.374418327016157 13.32583018387919 -0.7142851213506539
0.36201390440411096 13.344699265585582 -0.7408167957092051
0.34035769215895517 13.349275607615077 -0.7406272108421216
0.3161918112939776 13.370667872757515 -0.7168783672804588
0.3205467350799693 13.2503276354682 -0.6870074872138687
0.31929670537832283 13.26827464894648 -0.7601887691166574
0.32491173421411734 13.275192024916878 -0.7555185215932967
0.22777785554213043 13.278970653689198 -0.7452212713751307
0.22716842311729085 13.288694286971134 -0.756363456200343
0.30317130966611033 13.25624763552523 -0.7757495833298177
0.3527693056845374 13.320047209754541 -0.8453699317578908
0.3704984543066385 13.31450476410004 -0.8564063783064148
0.3423102526311385 13.325508373661885 -0.8439617232394772
0.3263908537353245 13.313900396857711 -0.817746641078224
0.3505901419285905 13.432768043320635 -0.8250484483807057
0.34063561953830296 13.41709010580181 -0.8594284540128404
0.3969378995541132 13.474957530586174 -0.96223530585234
0.3322443971586397 13.409277767564374 -0.8620848032870471
0.38218961413073826 13.48145823585934 -0.8352405717964326
0.39886283643980425 13.456208104355207 -0.8505060845917051
0.3571443265799272 13.43529366342514 -0.802083205402169
0.40519407637300114 13.409400780642217 -0.914882778944125
0.4077030712974749 13.380468044350462 -0.8685742150229969
0.40570539539743666 13.384162833688125 -0.8341263785551809
0.3673377296323749 13.321013347748824 -0.8561692972650751
0.3711728415023888 13.395068529732686 -0.8612742349432747
0.2740190930876349 13.377815642932815 -0.8422450621256804
0.37118570801642525 13.391370381573758 -0.9035280089584982
0.3773772046446387 13.42884590090251 -0.9210187958887873
0.3944381172918261 13.355024723195196 -0.9051169387723349
0.4062808596418416 13.609946501785712 -0.9551527503258566
0.4093489865635268 13.588768902275593 -0.9952899010249144
0.40794228738584964 13.567691858283643 -0.9549656665190276
0.38600217356939426 13.546943297132142 -0.898026371950291
0.3899695520397329 13.55633635891222 -0.9251255905711255
0.38635390171004047 13.546062549958956 -0.9152370284321607
0.39103147694181534 13.531807376675538 -0.9163751524017998
0.4408737050339601 13.469585354701882 -0.8913247206883221
0.4469022290043604 13.563170024584938 -0.9461046442145988
0.42613944545458265 13.59686547402211 -0.9532198747401416
0.44506779754398135 13.567306524453118 -0.9660294580578881
0.45059456783295115 13.471193467349769 -0.9608539651644387
0.5037620738028463 13.558881875767014 -0.9892171149704239
0.4397067318063118 13.464349071945522 -0.946271473883715
0.47506723597585837 13.53413986809551 -0.9867453634825094
0.4655571925140112 13.586631248171017 -0.9993900097884506
0.47878763577206174 13.582320972126135 -0.9983829557095705
0.39787969812990504 13.509887178693422 -0.9937187910501016
0.3539890112274131 13.519240782203843 -0.9672952903498467
0.40718378893347484 13.477289138046721 -0.979412826359196
0.4262119056025673 13.50286911219998 -1.0321940853716325
0.4903544791434802 13.862181070967955 -1.2263638911448205
0.5134338989992275 13.887017787870242 -1.223114623019186
0.5907838436901506 13.881187718667622 -1.2755510025815426
0.5732616498453387 13.87146786977683 -1.2609669237126169
0.5496436146011843 13.784489468030271 -1.2633109809265441
0.5426744446722953 13.802020973334262 -1.2878385866506763
0.6293097602439784 13.868138578277664 -1.2820353504306683
0.6368952461449642 13.881045234556233 -1.2989510407167648
0.551961088732578 13.87185348236744 -1.3294246463914425
0.5382241118119555 13.846582358357226 -1.3000280175972725
0.573420261910494 13.803263278634224 -1.3155947313076173
0.5829773403487876 13.967013901291585 -1.373316047586948
0.5379377185859173 13.933877336585368 -1.341790648555057
0.6349492338470288 13.93319387161755 -1.3242586515471755
0.6319772476199733 14.011359754251387 -1.3636568330971917
0.583375971334326 13.969703051067347 -1.3168307602002587
0.5891412373197469 13.960966865770894 -1.3318167838628974
0.641094108042684 13.98581319108038 -1.4016453536018791
0.6547854964159292 13.95741905667086 -1.3996136146039915
0.612771394408196 13.95343626577318 -1.3617932790783507
0.6250596329932762 13.93346121115609 -1.34892169962845
0.592821464586262 13.897156386297459 -1.348738253665323
0.5998020809987744 13.958235005781228 -1.3978622890505472
0.604964149125789 13.895004720358765 -1.3877048015240023
0.5849520034277429 13.941949295773032 -1.3825872834679398
0.5872171383884242 13.977690330739499 -1.4126209090678188
0.5412849039495085 13.90991061268296 -1.3567060145396301
0.5254537717904855 13.940594457395212 -1.3792701994594414
0.5522068305894002 13.922142235261802 -1.3616035719518749
0.5692541343332527 13.940721676386564 -1.3874881989700314
0.7510048005665266 14.345793935649182 -1.5288337283811153
0.7721806697051125 14.393248378805682 -1.5743472185814034
0.7833384112425068 14.355605357310697 -1.5896229679043374
0.01369143815539045 13.645407528068832 -0.08318584359246275
-0.03864676349073728 13.66089846613943 -0.047197966776819804
-0.04550592537278798 13.662049683286353 -0.09554265554524374
-0.03305816972324753 13.637833092147082 -0.1008417344667806
-0.08869265545205476 13.586406664867056 -0.07928480572663399
-0.10876821063253349 13.619799484607604 -0.07851061255648453
-0.0739676462765772 13.57429644860044 -0.10647968722431207
-0.07832143533335753 13.644753737535686 0.044530968430746054
-0.05067933174273453 13.589682271737415 0.024080663332532976
-0.01878587911292952 13.599239625383339 -0.0071596583899117845
-0.137264459207642 13.761288876868266 0.009749880232375949
-0.08964670683103367 13.690360513783741 0.02991445668105124
-0.08427894399874455 13.697413126759228 0.011840674214008981
-0.11119318197202023 13.743680060299406 -0.055585802393253475
-0.18389502081449915 13.763408248052864 -0.004953660492606362
-0.12531786411923335 13.75620770039317 -0.038792841022657246
-0.20463361392840174 13.71071513487186 -0.02027588870643316
-0.21098905593977946 13.720395042430589 -0.022349607171612634
-0.18459072500623092 13.659057625969393 -0.02205898985896483
-0.2038884680554208 13.718692800284469 -0.03522330763910265
-0.20625063188802734 13.708663897623532 -0.017212459722076037
-0.24760956884196272 13.902654963291095 0.06723300127634389
-0.1980015816861005 13.817035439126103 0.08506955447987098
-0.2747913075239554 13.818455195657243 0.02175524242405268
-0.21070931631945017 13.831787060718376 0.020123379427174362
-0.1950993104848538 13.80393496800506 0.013775194508762103
-0.2747155481629296 13.776192226127419 0.04140937033884455
-0.30512448979702456 13.865392635648702 0.03452687683391239
-0.30795774173305657 13.835638709942103 0.05142643856694632
-0.300493005173713 13.825892269018382 -0.004767263451939535
-0.31376432521134817 13.846607334878346 -0.0038975632878743456
-0.26489622004988744 13.866214250864429 0.16678025956298959
-0.21113386031610634 13.816372447821013 0.1034852337202483
-0.26139097361988717 13.826646186982524 0.14283263495415088
-0.290705600907294 13.946963588919358 0.1012063525225257
-0.2579291282079029 13.870284037585359 0.13093012378218
-0.26926717287524254 13.884850056747961 0.14297777189676267
-0.27373792653423756 13.915279183012052 0.09295828131704902
-0.4114557771304312 13.906816413582554 0.13930158153622388
-0.3369593113289494 13.953827119076951 0.04592494501305645
-0.3359730816020548 13.918472947063474 0.08508138543876309
-0.3456705357619862 13.908036863690178 0.02079090642043131
-0.2819132185222374 13.914006342408396 0.04885296017878143
-0.32254401347331696 13.875976729535989 0.006467698677052276
-0.3139461549904045 13.891465478513418 0.05839620718529345
-0.35038247468108014 13.877619072512104 0.09025959913832851
-0.4056137142557347 13.930096045567922 0.1321084027711747
-0.3506713835431291 14.02468007284326 0.13467507905440745
-0.34073869151101693 14.032841296355242 0.13393153813614264
-0.399954631139797 14.030555787421797 0.20254889176469798
-0.34854063701459503 13.987320163338016 0.17560993181102022
-0.46006984680874363 14.063162940348004 0.10354793783584398
-0.47719664990884497 14.073042153147293 0.09855635665565463
-0.456942240626498 14.074472681072024 0.0906910929366016
-0.4296881338271117 14.05727555626353 0.0985788381309928
-0.4468592568580757 14.005747238617698 0.10699606614842165
-0.46535739989425784 13.98576874793855 0.15081344285153875
-0.4528189169521386 13.96075667814931 0.15120040430107665
-0.4495672624145797 13.990246482841776 0.13200663464629922
-0.42455380525068637 13.943674780477014 0.14228796208115135
-0.43673715298341204 14.018185604100031 0.19329821179595896
-0.4538304151503024 14.00701249966859 0.20831848118386267
-0.4589859383491029 14.011335260918461 0.18177747833071956
-0.42983539143598326 13.993131507150789 0.17742437934178856
-0.4628026934126839 13.960356160919721 0.197274813402737
-0.6237650561933851 14.394387263453092 0.2892198943617415
-0.5879169830262124 14.313156058400498 0.2872551050122187
-0.6117113975349157 14.338496544147185 0.30376020433423245
-0.6216155114368238 14.357193338607722 0.2910397959428329
-0.6747125570166003 14.373823965913324 0.22552801896507152
-0.6356175316074036 14.309215829738267 0.24005295408770702
-0.7147941607199502 14.376880298903641 0.3005126803897446
-0.7076879137752192 14.346558887483079 0.3093300312254419
-0.6517755068298782 14.303211823911408 0.25741105709872103
-0.6560027819112336 14.310335710089591 0.24140528517294738
-0.6551371455131139 14.273362058403425 0.26436331748491126
-0.6287457571044306 14.331012405861348 0.29231059857724034
-0.622613997795645 14.29204623558445 0.28046278134697733
-0.7218546886631726 14.472282427739685 0.2856975357343246
-0.6938104930372392 14.44245607285053 0.2595226174604669
-0.7106610742095278 14.553590599492468 0.289659476241362
-0.7848361816373368 14.488109812169494 0.32504420570058556
-0.7701354421107278 14.513007274932892 0.2915806913323281
-0.7001243847344214 14.395950189533272 0.26643725976847926
-0.7472405975482843 14.466054306849008 0.25754211988567605
-0.727516453527518 14.423731204410942 0.2799270279779547
-0.024148553579473465 15.646323324259093 -0.11058191252552382
-0.06758953726228688 15.718173748839948 -0.09841233443129431
-0.04522837701096296 15.672804351801036 -0.045449383798137774
-0.07042807045060429 15.658678213000377 -0.07178733678957204
-0.07629436863172709 15.678125987276278 -0.035019876709924916
-0.03392235560722113 15.652502573815868 -0.05605602562614505
-0.04906369062853727 15.673491181267224 -0.06527393698060455
-0.04610748073588468 16.216890685988563 -0.08934555461018764
-0.12397298546242079 16.611200518251675 -0.07952609763882007
-0.09766792779847026 16.572331740435626 -0.08306254353163228
-0.06653977689032846 16.576760748321338 -0.05386763075799376
-0.07068289747055098 16.583778379340046 -0.02550706704865256
-0.07044481603071316 16.582603825660918 -0.028928534925987015
-0.051574450456872825 16.709424851202872 -0.07456582123274248
-0.10815823165822673 16.62085812513194 -0.07593311348769607
-0.08386055516918774 16.724674101569335 -0.0367283709412691
-0.12318566162065535 16.9820113829229 -0.14655801232656374
-0.08980087977414761 13.064631116629629 -0.08307177063546173
-0.09026873755589315 13.08096954696147 -0.09668695190514345
-0.05882960728048412 13.079654627288177 -0.1006457152222884
-0.038311505819387234 12.994647830359094 -0.11427963534984588
-0.0375458970734168 13.00323030916027 -0.12229736747937711
-0.03523609592698517 13.035056840258894 -0.12694027951978168
-0.0026094984995212855 13.06037365662581 -0.12384234604606592
0.006197112565544911 13.012990148746281 -0.14658055492568933
0.0021943071440385705 13.024053804396262 -0.1219803177290171
0.018758718427749142 13.015259870066737 -0.16268652865621533
-0.048012458359048216 13.179069115777194 -0.11669983486678173
-0.08239910695482305 12.997857867408733 0.00923351085318078
-0.08549985615509448 13.139988661802686 0.006031890278839083
-0.1400792596572355 13.194488593642532 -0.08893435446423721
-0.11788032803325885 13.098956410331185 -0.01877810412371997
-0.017260375188880676 13.13955864933567 0.03386926691728309
0.008896828802520981 13.126018590106314 0.015513577063703963
0.005241968237364761 13.11924429472443 0.0354861744055352
0.055112019997622934 13.007155411219012 0.007332690589464907
-0.032282382621122395 13.127632897864405 0.006326944972105339
0.02086325446217194 13.065805236646126 -0.10194473430753108
0.04694717626251439 13.085526508630233 -0.11489198764548325
0.03645251698970549 13.088315415432078 0.010926563288704392
0.020774044779301844 13.19542647716191 -0.02633397196271009
0.03336042979134102 13.156596075952177 -0.01387190022952338
0.027457210139055725 13.147671405127145 -0.045873464348344994
0.05979839921699412 13.164739841410697 -0.05671001665428199
-0.11791389772455747 13.202833396389572 -0.094677603803869
-0.13126853432235797 13.255694412832087 -0.09894528024444177
-0.13710690961151695 13.296950084508422 -0.10150850272339557
-0.10831675363055696 13.360356322057356 -0.1123826038026606
-0.08847295580098477 13.384438697296979 -0.10446655752107298
-0.12479725748694544 13.407516193497285 -0.10297723567737718
-0.0681320361156489 13.448711090162263 -0.10344738626979146
-0.06878408663581073 13.452856963472001 -0.12588826007642062
-0.074043678545218 13.586087275479384 -0.11884133524989883
-0.08228098402011505 13.57386250360071 -0.13267977459952657
-0.06645781365176541 13.472504619335187 -0.13085194948674422
-0.09729827266688311 13.599807869284525 -0.12165749176052541
-0.07392044152657742 13.612670870288207 -0.1257470224491398
-0.010651725960159144 13.632801529542766 -0.13068373413141898
-0.02810035958485297 13.66765974030338 -0.1259398811597824
-0.020786343664118943 13.652248554635745 -0.12724810927070343
-0.10093250505977908 13.651745784514212 -0.006425024012877832
-0.07949127160365635 13.59235490929413 -0.01582715488077515
-0.073208969953645 13.458019347166063 -0.05609861683856327
-0.09046502459568721 13.64798557676218 -0.06637077992809877
-0.13548393704215295 13.497419203796925 -0.05403505322728126
-0.13010659144475067 13.43828059170555 -0.06689537819631294
-0.10799059458209945 13.450088956763045 -0.07737752209012336
-0.12922204010837157 13.680423912622228 -0.08510950483209234
-0.11026256282417735 13.681820863438233 -0.08307404450589366
-0.11036206224950372 13.577997201043473 -0.07863103030897091
-0.11743967511229797 13.3257396289481 -0.06418846177434342
-0.09369459287046608 13.332729298585873 -0.10157859436010237
0.053429856120388794 13.654548166732004 -0.03164984183104975
0.011535954916469837 13.657197404905705 -0.016561757458544043
-0.00593504883405527 13.593851512954418 -0.008982920924966848
-0.027743080177254745 13.612099855618032 -0.01167551939056764
-0.03225857263706805 13.486982668586013 -0.0028639880713643463
-0.05430568885720083 13.430172211717451 -1.8329709666750453E-4
-0.06238514927695887 13.472146440977298 0.021418298446348783
-0.039677797930652944 13.50824407583401 0.01834776603764656
-0.08512175860631717 13.68136097523069 0.0065723283759887416
-0.04350988104130468 13.629962340355178 -0.0011498361724090519
-0.039478073068250595 13.597193656095973 0.002845483631668335
-0.06286242190516206 13.434372451148606 0.01898561262607859
-0.0379174411886809 13.70947485754534 -0.014558833944458982
-0.03396408140663715 13.639560060506884 -0.02611931271923489
-0.024791061886056454 13.639538206728066 -0.011758337510054511
-0.03790924729248488 13.597495769985755 0.02042928643006354
-0.07132311343002364 13.277285330291324 0.04345075711943226
-0.043167938152481385 13.34822532514873 0.01045448775765164
-0.08243397967128388 13.375514760850704 0.04744004714094481
0.02330447372914508 13.285821607369474 -0.13994608639899664
0.025687804534552043 13.336135743941465 -0.12920572026189062
0.019584675019200328 13.381985557148221 -0.1332958509038904
0.022441587984799272 13.494932594458446 -0.10292579865905838
0.003595383287616361 13.542767753962586 -0.08861314539091399
-0.0017045352783521036 13.654039826083894 -0.07821982554642082
0.03220937436153029 13.562786726295435 -0.09041099152459449
0.002242547228197415 13.620847943038727 -0.13316965660170615
0.020686028490668563 13.54922985965099 -0.15570708208370065
0.024747305537958723 13.663895712252279 -0.09087897864693215
0.02792669000226227 13.521731414173 -0.1541745192296037
0.01089698000799021 13.54032687944616 -0.13585756387544862
0.01727879999031777 13.55470563127354 -0.05366882268110663
0.036775875942573664 13.6435752560785 -0.06245857789979134
0.034392238095919916 13.55463342109041 -0.08884029729267676
0.012847184747518527 13.696783305944898 -0.07573992607975731
-0.11887564024115929 13.79156888501111 -0.11032771764484284
-0.10577585919522982 13.7642555928858 -0.09346010458112398
-0.12198228428846934 13.884292043248063 -0.11369715518886155
-0.06539244142421616 13.842350990029328 -0.12156032213848694
-0.09639746090473145 13.831126932947784 -0.09865528562988896
-0.11010796640768702 13.940713950031764 -0.11944554311495734
-0.07888243807935306 13.998892853121253 -0.11721168484086218
-0.08346352049440686 13.896959856800141 -0.09706252435382785
-0.07416199890221704 13.951737643188105 -0.11596950987060059
-0.0820127330174853 14.0833256715988 -0.12648949477133184
-0.07094307852420398 14.071912933738073 -0.11492057140211752
-0.07495963118608251 14.028121291141185 -0.12906178884094927
-0.022167859971137318 14.080717465226112 -0.15697396653505938
-0.06886239782369878 14.013228606129884 -0.10687151450066706
-0.043896895025772036 14.1151420106171 -0.1328779647184708
-0.06591180170483989 13.979735908619427 -0.12244755505940641
-0.07531470103654637 14.001906171134497 -0.06766871747808531
-0.11409775130874739 13.945040446854426 -0.057703722854702225
-0.11544921712202443 13.96358023159371 -0.040984248527535766
-0.07151386407658886 14.028510948203841 -0.08831927939210178
-0.08538711076337654 13.936321144664502 -0.10428040724676516
-0.09236198159076144 13.913539344138577 -0.0739120356911565
-0.10614705874237915 13.943520335650776 -0.07678542084296174
-0.1013749942715638 14.062205793725656 -0.12776872499956138
-0.1205334637211542 14.031369300578538 -0.09561341794729211
-0.13185463995813454 14.002593667467869 -0.10111207581731847
-0.11474639341341474 14.103219351084034 -0.0820376756118052
