ply
format ascii 1.0
comment VCGLIB generated
element vertex 872
property float x
property float y
property float z
element face 0
property list uchar int vertex_indices
end_header
-0.09204154166666667 4.604836625 -0.11941181249999999
-0.133762 4.5864545 0.0145315
0.056989930989583326 4.51671921875 0.09797965104166667
0.11327838194444442 4.564119152006173 0.005260658179012346
0.09388298958333333 4.499831520833334 0.04401573958333333
-0.005547848088624339 4.758502269880952 -0.13369847869708995
0.0340699375 4.7680447500000005 -0.133511875
0.005009375 4.818419083333333 -0.1328485083333333
-0.0795189861111111 4.938594999999999 -0.1154361736111111
-0.028114199074074073 4.840138236111111 0.10238492129629628
0.08744504444444445 4.796909266666666 0.0519945
0.08826994444444444 4.741488166666667 0.05063424999999999
-0.11839611111111109 5.191459637973986 0.007350435097001762
-0.11002006750000003 5.071028822500001 0.03480065250000001
0.111263 5.040525 -0.039807
-0.019471252314814814 5.478986159722223 -0.11988393055555555
0.0018329930555555554 5.426157604166667 -0.12138722916666667
-0.1010601648888889 5.348820736888889 -0.06311970355555556
-0.12032174944444446 5.43258308138889 0.0020598902777777778
0.10479594444444444 5.398481972222222 0.011755583333333333
0.04106588333333333 5.263015635897436 -0.0772568373931624
0.02199938888888889 5.828807305555555 -0.12259591666666667
-0.10382383333333334 5.743863572916666 -0.05717083333333334
-0.10371657475398469 5.5754624734803935 0.021468962322002492
-0.014411984413580246 5.682749638348765 0.09017172484567901
0.08271784002976192 5.694165380654762 0.0395049630952381
0.098895 5.640764 -0.046261
-0.0019555 6.018953 -0.1240405
-0.10130581952160495 5.926563797415122 0.0232509306712963
0.02548384375 5.922020578124999 0.080072015625
-0.0273992806122449 6.088964893990929 0.07524954195011338
0.07670086419753086 5.9922304376929 -0.06923635898919753
0.032856333333333335 6.170660249999999 -0.11762800000000001
0.031975 6.332554 0.06203
0.031489875 6.165749 0.0692235
0.058935944444444444 6.28238411111111 0.028770444444444446
-0.11315594890873015 6.59552233204365 -0.06767433373015874
-0.10497802256944445 6.497373577256945 -0.07542443619791667
-0.1032965373015873 6.526050377767857 0.014468495853174604
-0.03554833333333333 6.494969833333333 0.06003133333333333
0.06188313888888888 6.4136985555555555 0.009439277777777777
-0.03656997083333333 6.419039681944445 -0.12737591944444446
0.03267538541666667 6.493484379861111 -0.1192804486111111
-0.003139776041666667 6.7383760015190965 -0.06384574989149305
-0.11779348379629631 6.700468500462964 -0.056708782407407406
-0.034628807111111104 6.844712639555556 0.053163378222222224
-0.026680791666666665 6.763079513888888 0.030514111111111106
0.04539858018663193 6.946167151692707 0.005407644748263889
0.049315433333333325 6.666685509523809 0.006955369047619046
0.055344018849206346 6.755841509920636 -0.06754446000744048
0.05066923958333333 6.855461763888888 -0.07566702777777777
0.013110520833333333 6.992508289641204 -0.12090384374999999
-0.10698304166666667 7.028685208333333 -9.032083333333328E-4
-0.087743 7.066052 -0.112841
-0.11462204464285712 6.942346107142857 -0.008294017857142856
-0.009525482012944066 7.020678753995811 0.049488573550485006
0.03431656423611111 7.026622862847223 0.018766175347222223
0.039268366666666665 7.008332816666668 -0.08267660833333335
-0.0961205648148148 7.349603898148148 -0.08688465740740739
-0.09571644126984125 7.187661126984127 0.02351754523809524
-0.123565 7.421391 -0.019968
0.03881930869984568 7.256535203308255 0.002963680719521605
0.03644634114583333 7.381634446614583 0.012284893229166666
-0.09447674583333335 7.673129299999999 -0.08625892916666666
-0.11093559094791666 7.532930310840278 -0.04963383254166667
-0.10021419095833335 7.535096601083334 0.013849025166666667
-0.01692004430429579 7.593630957919186 0.04651662173406399
0.037799502222222225 7.59734664111111 -0.058361134722222215
-0.10486152862204405 7.8521763998385365 -0.06541478014632937
-0.10411270317760943 7.797860670356341 0.009768722899130191
0.03152667398726852 7.85400716520544 -0.05250595739293982
0.03519681730324074 7.791795972627314 -0.05220567332175925
-0.013588735656415343 8.108440631283068 -0.0977466495949074
-0.10088690925925925 8.174060733597884 0.01097060343915344
-0.10496580833333334 8.01537030861111 0.0029051877777777767
-0.027620213383838386 8.02252031902357 0.023846399410774412
0.01795890972222222 8.191566380401234 -0.01918074922839506
0.02474371861111111 8.107799406836419 -0.045728460061728385
-0.021509815841049388 8.28922333219549 -0.09745854846891533
-0.12028437198873772 8.370614515085194 -0.06657568666320159
-1.6794604700855024E-5 8.370765960078348 -0.07132683798076922
-0.002244280947646104 8.459277583059118 -0.06099972161133659
-0.015634543816137565 8.52787030869709 -0.07624355055390211
-0.12478227045634921 8.6886210621875 -0.06807507061507936
-0.11204708444444444 8.632396622222222 0.0017119955555555553
-0.02872737037037037 8.602340532407407 0.006071668981481481
-0.1965098488228104 8.86916097441805 -0.03532982720202664
-0.0252798230109127 8.94749864764881 -0.0845271230109127
-0.13131516666666668 9.1930471 -0.07010383333333332
-0.0631545 9.2319755 -0.007955
-0.09000147648148149 9.62829490898148 -0.11801564935185185
-0.11256021793191656 9.483179179681228 0.015117267398661942
-0.12991460021022297 9.468397526313304 -0.06267687286233936
-0.10258619129774306 9.697481824707031 -0.11700694721137153
-0.09552513928571428 9.745626978214284 -0.023819114642857145
-0.072023 9.709264 -0.022925
-0.1067714484837963 9.960244152922007 -0.12251407914618943
-0.04721072384259259 9.795527379166666 -0.0751496011574074
-0.06852499999999999 9.9661875 -0.12422966666666668
-0.042933797619047614 9.720072767857141 -0.11817109523809524
-0.10803662787798621 10.132780333122897 -0.12580437385561966
-0.1196570418367347 10.06025700510204 -0.12201116224489796
-0.11856626331922744 10.37424904538303 -0.12506887036132813
-0.15773198958333334 10.268824045833332 -0.09360141458333333
-0.09867142061224488 10.306259041662415 -0.07727459419217686
-0.11872611979166667 10.400654807291666 -0.08808055208333332
-0.11186968475772005 10.64788733453309 -0.13574703248420916
-0.1097159711610577 10.647247183725161 -0.09678310756143163
-0.17214619642857143 10.643265697278911 -0.13416911404006046
-0.058351535377209586 10.65378044068024 -0.11787797501183711
-0.09710337222079332 10.545655585819615 -0.13099402752057612
-0.1450311807823129 10.815683460267856 -0.10469575576105442
-0.13135369460227272 10.804523046875 -0.15362142234848483
-0.14285830833333332 11.140336001666666 -0.15757062333333335
-0.14938113636363637 11.225311704545454 -0.16328559090909092
-0.29038745531944443 11.98097204363889 -0.20929478208333333
-0.22322155835688645 12.236568520049243 -0.1750982502331849
-0.24654432068642668 12.334797813124943 -0.17201782664718548
-0.2244210778792195 12.403877553643413 -0.1804576645506705
-0.23443887405780486 12.565547936739783 -0.21165542607983795
-0.24827968511904763 12.662973369642858 -0.1893311119047619
-0.24556036901360545 12.585886986632651 -0.2136163250340136
0.3016954250440917 2.556586229276896 -0.3214404669312169
0.4488436481481481 2.4196068163580247 -0.4875766944444444
0.03655300272293036 3.5041531751265036 0.027539411672478756
0.13226957847222223 3.420935618253968 0.09158083412698413
0.18912003420952384 3.3716492580952377 0.13082386830476192
0.2894146 3.2684876000000003 0.2155378
0.2314140533718111 3.323333390628157 0.17631279419356854
0.27273082917611485 3.2915113843537416 0.198973790627362
0.9635616678347795 2.7911032898224324 0.7554008054876497
1.2154186276487091 2.658160209217199 1.1210504330872229
1.184699 2.6727705000000004 1.0722225
-0.004415776909722223 3.7935103385416666 -0.07054953038194445
-0.0407397744223251 3.6783167041915297 -0.17735947125548696
-0.04450146703703703 3.6586417567429694 -0.23122354765260633
-0.0854564850915532 3.482284407016011 -0.4857520971230524
-0.07441549439958285 3.544549773332562 -0.3819416570159505
-0.06741473005050506 3.4883390035353536 -0.4680159378787879
-0.08368000000000002 3.517946733333334 -0.4226993555555556
-0.09848405966719685 3.377421075370316 -0.637068083914514
-0.08404150000000002 3.43945525 -0.51832875
-0.09802210254623277 3.349017429477307 -0.6809261729263335
-0.106206125 3.284512875 -0.798470375
-0.14887270755440848 3.1190832951529366 -1.0401156007298062
-0.1440834629177109 3.143095461637166 -0.9998770852613303
-0.1647899224743756 2.991430653497789 -1.2486592720294423
-0.18930179163472208 2.920805741321529 -1.4014115783664831
-0.16328619270319697 2.9566966434196824 -1.3117466501979305
-0.14761204 2.9249927600000003 -1.36052192
-0.0637446402672559 2.7796038966645624 -1.6292442430239897
-0.029845746141975306 4.094936383641975 0.014300277932098765
-0.08892170563271605 4.072299812191358 0.09085830347222221
-0.1182701111111111 3.9427120833333333 0.1904284722222222
-0.152599 3.903608 0.266173
-0.3041615191509741 3.720529719652237 0.49616793983802304
-0.34368814323668234 3.676817973334107 0.5366001217455701
-0.405942 3.600111 0.665861
-0.4673951729910714 3.5494344979228676 0.7440437136656746
-0.5297232888565472 3.4804067807007404 0.857656126853758
-0.6451521338317393 3.3328479953651136 1.1041594069363045
-0.6827288650257537 3.2946286102848927 1.1813588668520523
-0.7020404085945449 3.272667650712569 1.2197346170498196
-0.770794008381997 3.2076757843368577 1.350628643778935
-0.7884437009369487 3.189044110402704 1.384225129622281
-0.8570163602748325 3.132193753413318 1.5183722847470236
-0.9055163942124541 3.0899778427106224 1.6125584146886447
0.044179399999999994 4.414481533333333 -0.015972533333333334
0.19986678229166666 4.312803519791667 -0.06383892187500001
0.3044125080176768 4.220465000694445 -0.091226425
0.39904895061728396 4.154371820987654 -0.10432703395061728
0.4727075276447511 4.0975000491313 -0.13009635321824756
0.5642640920833333 4.027505442642432 -0.14802305582908162
0.7992120622124184 3.8896427883836093 -0.18312241669180493
0.8388730789236254 3.857133646812599 -0.1852232559334783
1.0893089002686631 3.7139311095674916 -0.2830623627492108
0.9599549763610594 3.7974986847366523 -0.2251213955813234
1.1233091992187498 3.705338304036458 -0.29800145525568184
1.284800378787879 3.628598196969697 -0.38886306818181815
1.3766867629794373 3.5904924646580088 -0.43753168413095245
1.3242319624217378 3.6088010804032056 -0.41242261535186564
1.4182071971514527 3.5753410928764993 -0.45494326453063194
1.5426295081086008 3.5359989276603496 -0.5180657835276967
1.5590119999999996 3.5288256666666666 -0.5271163333333333
-0.02991215778676835 4.7457804700319315 -0.04093188133370535
-0.041208702822730654 4.7520375942072794 -0.010625632859002976
-0.08601415767039765 4.728554469350335 -0.060719693459952595
-0.17739545287293487 4.654448225186265 -0.09092377266561386
-0.2714624551580688 4.571787825280754 -0.148726396796627
-0.7219326904761904 4.258869761904761 -0.3714463333333332
-0.8205924027777778 4.197670583333332 -0.4351258472222222
-0.9576653421796085 4.111652584346065 -0.5126126195417717
-1.044082114729128 4.069433121260702 -0.580860929277245
-1.266514 3.962029 -0.786278
-1.3728835946226108 3.9197755583738254 -0.8798366031422092
-1.4765991900236959 3.8853984294892343 -0.9736591975728689
-1.4363737968749999 3.898530689236111 -0.9368371597222223
-1.5204771845238094 3.8747562976190477 -1.014458613095238
-1.5533372285714286 3.870595371428572 -1.0464378285714284
-1.7044500166948726 3.838053826537698 -1.1869639029032448
0.03556646014957265 5.0182112612179495 0.02599318023504274
0.050204669547325095 4.917018817978394 0.1046266590020576
0.07760976999636891 4.864936332202251 0.20614437529230212
0.08536881728741495 4.8335424194161 0.2484317963293651
0.20008076113315698 4.566605881065366 0.704975229243827
0.19474944444444445 4.55107225 0.7489966388888889
0.19629699957482993 4.517551312021684 0.7929343776041666
0.1990921557164311 4.487521067101375 0.862775108643448
0.21452212389118477 4.412326166438642 1.0215463531186404
0.23044283000000002 4.349410596666668 1.1316346041666667
0.2773532625608466 4.191626982447972 1.4497841270828926
0.276122325 4.120220525 1.6218611
0.22712017848250593 4.051716844375198 1.7876738149693594
0.1700239880952381 3.988652787698412 1.9765361408730158
0.1833523932769983 4.0043662081254725 1.929541819194657
0.05289543237103175 5.240176888472222 -0.14342575916666667
0.29629141666666664 4.88900975 -0.6040614999999999
0.40699860899999996 4.754404641708333 -0.7230003598333333
0.6363209233749054 4.564256651297555 -0.9942401093631896
0.6764622833703704 4.516691072134259 -1.0627421533287036
0.7498900851851851 4.452194083333333 -1.1658804037037036
0.7986099 4.408414693402778 -1.2310723493055558
0.8761243495547902 4.351120793569028 -1.3340480749819057
0.7780416470379818 4.431716452954933 -1.197797155915533
0.9504179391794217 4.299411952338435 -1.421299156462585
0.9144370695238095 4.3188135771428575 -1.3850586476190476
0.9634352217996289 4.285982054050711 -1.4436891572356214
1.0832694008516737 4.214302739647614 -1.5763135660003564
1.1695785851838072 4.162240554944335 -1.6753517730526617
-0.12640398737373737 5.53432998989899 0.03655647853535353
-0.16140492509920634 5.522346306051588 0.0467264990079365
-0.12861063333333334 5.5130328 0.07623816666666666
-0.47171348209876546 5.283349886419752 0.23676618086419754
-0.606203736223629 5.200648971979224 0.2551373728889834
-0.7025914696757948 5.175199209604513 0.26829319234503596
-1.124327478630887 4.99009972253921 0.3366482950421811
-1.2139419601583057 4.940722055873865 0.36387515882140736
-1.2834268332526075 4.906270713444161 0.3780181295706916
-1.411503251765873 4.853873198313492 0.3988989303174603
-1.9578197791859777 4.638350269877204 0.328947372181125
-2.0500677499999997 4.606280249999999 0.3075245
0.11342614930555553 5.790522527777778 -0.003202473090277778
0.2395100798185941 5.745749713907784 0.07611677588813304
0.6400825506799769 5.508150563925058 0.2056331018952546
0.6431116875 5.5053919375 0.2317465
0.8045028092129629 5.4181205256944445 0.29413356768518517
0.8754691951838991 5.387653094391543 0.3232770695634002
1.03719075 5.30711175 0.36644424999999997
1.155483388109127 5.235714012274802 0.40958984182341257
1.375157 5.130432 0.478468
1.4772586814814812 5.079153777777777 0.5103073209876544
1.3674725416666667 5.119691708333333 0.47073774999999995
1.5371785140046295 5.055922067592592 0.5381825150462962
1.7323212583333334 4.985268275 0.6312332312500001
1.9844824220626036 4.912723695544532 0.7586088509679761
-0.7183468597496694 5.270730457544644 -1.2247734791458336
-0.8105510132006449 5.19289563836818 -1.3030992577689733
-0.7678396726190475 5.230082888180272 -1.2636917861394559
-1.2048820572167147 4.835707346945589 -1.7506449382697504
-0.5592442792745537 5.522056303218769 1.4397869335663727
-0.677364139739229 5.314830295540438 1.8578436618102796
-0.6853441698412698 5.29751657037037 1.9018259338624335
-0.7037110062626188 5.246569099257479 2.028305268415206
-0.0027329999999999998 6.688949749999999 -0.059427875000000005
0.06606502140972223 6.663331451378472 -0.11681391247916667
0.2527343640046296 6.533959974537037 -0.22630504571759258
0.7215857807792206 6.245495484293831 -0.49167914967532467
1.0399223084077378 6.0653865703125 -0.7124572053571427
1.1822740916666667 5.964110466666667 -0.8189849083333333
-0.7799524751636906 6.547322450395834 -0.12418271380952384
-0.7578442333333333 6.57495403095238 -0.10638608928571427
-0.771377 6.5522100000000005 -0.10985
-1.4603240109602815 6.187765542125021 -0.15516727767387298
-2.0288662362791547 5.89394351183309 -0.07709335235422742
-2.0610292592261907 5.8767558599404754 -0.07460195511904762
0.6656511443689123 6.449817899526891 1.1193800600878578
0.7429550528828613 6.3510863021253625 1.2920819937962975
0.9568785432098765 6.150298783950617 1.6340190246913577
-0.08646971041958547 6.790294451935065 -1.5832699258822642
-0.07949226498324515 6.824853211111442 -1.492889816145723
-0.08564192857142856 6.804886357142857 -1.5202475
-0.09637028888888889 6.759018365869709 -1.6774213551455028
-0.23686775714285715 6.563217350000001 -2.3976929000000005
-0.20343169362139923 6.589943062757202 -2.261453093271605
-0.05049727023809523 7.703253182539681 0.02637194722222222
-0.2511066273148148 7.5517881791666674 0.20960370532407407
-0.2056525166666667 7.556737250000001 0.20104475833333338
-0.6128826335644515 7.324319779965768 0.5445638838184632
-0.6310569160997732 7.306987193594104 0.5400699827097505
-0.7042444898611112 7.281151939259259 0.5986726902314815
-1.8556781555555557 7.034475777777778 1.0586611555555556
-1.945644762400191 7.030086801109957 1.0856037087987076
0.11441516578508296 7.922664607205666 -0.010753736112721603
0.23646878884001815 7.854821996547092 -0.038926960304183925
0.31835480798772164 7.811037671703386 -0.03776198871530999
0.3813320222222222 7.798616054012345 -0.01426893148148148
0.8095916928674767 7.627060636295056 -0.0877300660280258
0.9101555276700422 7.607330211737971 -0.1215247126666906
0.9848232313011323 7.58883795586829 -0.12623549028361347
1.0573619190476191 7.557438733035715 -0.14490834523809523
1.2872071875 7.497810250000001 -0.19419568750000002
1.4814478408012095 7.429672900307742 -0.24700338379656622
1.6340743686948855 7.396715344664902 -0.2763160244708995
1.972897260841837 7.323729752338435 -0.3362572980442176
-0.14731624999999998 8.12987125 -0.13787775
-0.7761626229886385 7.688987206493437 -0.6791138496286416
-1.1055647446939616 7.496002920673496 -0.8788576343343414
-0.025163760552439456 8.382325416878434 0.11806844188224969
-0.021580795529513887 8.356340389427082 0.18151536276041666
0.16017242845322593 8.053963936310922 0.7785001410330853
0.18708345555555556 8.051190797222223 0.7934545333333334
0.3334552661960807 7.893613382849219 1.1179218923237477
0.37887530928917856 7.864245846064025 1.192544292320956
0.4633226633587556 7.7876034064125195 1.3621774494011967
0.5023727944139195 7.7542122933150175 1.4359978974358973
0.7655576666666666 7.557175333333333 2.0066276666666667
-0.024905611081973582 8.694856144473583 -0.0714713657925408
0.0645091806547619 8.584885557202382 -0.20969017267857143
0.03253263333333333 8.610577349999998 -0.15022159999999998
0.3237522727410125 8.390523444585712 -0.4825958151351526
0.4829052403025316 8.298897020759181 -0.5646242843270819
0.5339454630102041 8.282113578717876 -0.5930990472411186
0.6432697943613591 8.217742455790066 -0.671096133686997
0.7130094448750001 8.170231591750001 -0.7202187306562501
0.8215308492442831 8.112532119286254 -0.8082184526315312
0.8671345562500001 8.086612965625 -0.8461540593750002
0.9607994664506192 8.035075399590394 -0.9194270612993625
1.1401044999999999 7.9477487857142854 -1.0224282142857142
1.2533326425047537 7.901412940409743 -1.0728924815531993
-0.3553388894557823 8.776884023596937 0.030919630612244897
-0.8680974999605227 8.521439664743436 0.20047346162064827
-0.7924431939865689 8.552475457684675 0.17882021932234435
-0.9391904732142857 8.49613177827381 0.2207460205357143
-0.956615 8.490563266666665 0.22278123333333333
-1.3618025068287039 8.332673208072917 0.38577779979745375
-1.5328700189154862 8.25615725100562 0.44437156761998686
-1.4627295546031744 8.283770798004534 0.41941104133786844
-1.6415183274498462 8.216773618055559 0.48831109589120375
-2.2178924886806373 8.08355852704152 0.6867721137691855
0.026939202699392515 9.10318956143445 0.00990631889329806
0.12964856249999998 9.035084999999999 0.04871129166666666
0.4692191831590944 8.859467575351331 0.2723512109274554
0.5687525963828627 8.818181797226526 0.34504812553805103
0.5408070972222221 8.837172055555556 0.3363115694444444
0.789900852994228 8.758748079184704 0.48739283513708515
0.920746111111111 8.705684555555557 0.5688296666666666
1.0622931875 8.655753875 0.6380598125
1.2477986388888889 8.612819524369856 0.7457681810699589
1.3967724782186948 8.592094145767195 0.8436561186948853
1.4570649225330687 8.58686137171438 0.8826233651568405
1.5431961581663993 8.579460949332265 0.9441425344951923
-0.11091782777777777 9.255206302777777 -0.2850476388888889
-0.1360708000125976 9.197298577034516 -0.39362775875535394
-0.16468092592592593 9.169330918518519 -0.47088844074074077
-0.2575046328125 9.052089421875 -0.6855825078125
-0.29507722231670447 9.006546068310657 -0.7942785954270596
-0.3507983559002976 8.939834770247801 -0.9052782829387642
-0.31134656035714287 8.983288838392857 -0.8193892877083333
-0.37916174999999996 8.912628875 -0.939921375
-0.5034027396344396 8.812949005507456 -1.1731440304112555
-0.5396638136091821 8.778581626503023 -1.2526760833293145
-0.6001783333333333 8.734120999999998 -1.3550481666666665
-0.6835945790472058 8.678914464560322 -1.5029521369091712
-0.9567161299510257 8.553709964644225 -2.001812581921583
-0.931196025 8.564129224999999 -1.95411235
-0.13280781843148146 9.457651772021299 0.10899594407777778
-0.10137771428571427 9.527189023809525 -0.002165404761904762
-0.32285450000000004 9.2245585 0.6766095000000001
-0.41915762811791374 9.147563153439153 0.9605343000755858
-0.6774278257385935 8.950129223689082 1.6392614598165776
-0.6449898461538461 8.962697025641026 1.592319435897436
-0.7187071024081466 8.934304555453002 1.7002831033257082
-0.7732311802083335 8.911652346875 1.7833058055555555
-0.7556271709482304 8.918550403537514 1.7563368480928083
0.041701895238095234 9.668790888095238 -0.09382513333333334
0.144592446474684 9.633866887719158 -0.13471265054589213
1.6586133589075853 9.272946591975732 -0.508740070455586
-0.2736247851364732 9.853667160373163 -0.13055190963418198
-0.30248395148809526 9.827571659672618 -0.1471731200892857
-0.5392508342151674 9.737062106261023 -0.2062223205467372
-1.4515229249590769 9.435702278457226 -0.460280979886727
-1.392979 9.448885333333333 -0.44754866666666665
-1.7922439978330686 9.364729588139683 -0.5668154293306878
-0.0388095263641208 10.117865918714669 0.013302761253546415
0.15431198112881844 9.996321111818085 0.34799368619338267
0.2871074343924841 9.879734989780074 0.7660983713406593
0.26840408068949295 9.898492232512362 0.7022727882163319
0.4177330263730845 9.786701423181647 1.096555035204425
0.4556011908985622 9.76582713372285 1.1950290185749122
0.5633753157998251 9.71467185015115 1.5376401665574009
-0.054154853380112764 10.288341261713777 -0.21794811648411194
0.024533635218106992 10.214572045917693 -0.3450183345226337
0.23945147838128306 10.05919696098182 -0.7286993835025811
0.46433165379734725 9.901541562009344 -1.4105268849419588
0.5773280595546394 9.861244693452209 -1.8404040276349103
-0.6497841003637567 10.211547974966932 0.5866470015542328
-0.6680427817284308 10.201488840734687 0.61815190988314
0.3068240059209994 10.557224639332532 0.006167442155612243
0.5585894154292106 10.507421628964495 0.11192409772438361
0.7241101544707265 10.495070907965555 0.15488560415343913
0.5359660280423281 11.287354252380952 0.6982692341435186
0.5725794392243009 11.294502926599112 0.7861540754883549
-0.17680576141098486 11.59223729180871 -0.2456626859848485
-0.1452695 11.588168 -0.33699650000000003
-0.06504145323129251 11.517929152494329 -0.6117679125566893
-0.061441562500000005 11.514839625 -0.6335424375
-0.015500818738977074 11.468009425330687 -1.2397013389550264
-0.33230412006250004 11.6470547623125 0.29806068165625
-0.40838383072916673 11.602604244791667 0.5618510807291667
-0.4858540734567901 11.579326725432098 0.824012754197531
-0.5020459229166666 11.581021797916666 0.8679543208333333
0.1349257231746032 11.814750425396827 -0.14655379428571427
0.59125625 11.76516925 -0.10970025
0.6324112109375 11.76583321875 -0.11275027343749999
-0.9098276887755101 11.871117334467119 -0.7006592579365079
-1.059748186111111 11.880528636111112 -0.8025934083333334
-0.1227867719311487 12.101520424015748 0.017182839101094305
-0.08877977758290816 12.092403801339282 0.09646827806122449
0.022273192363407555 12.079433109806914 0.2857762146812537
-0.01810259169238683 12.227344772633744 -0.3140854293981481
-0.538599906712963 12.315935376494982 0.18946361311728394
0.028855694661458334 12.731943512912327 -0.21715828862847222
0.22210371875 12.732504046875 -0.236287828125
-0.7723609375360081 12.790053639650207 0.012330897294238682
-0.15263985185185183 12.888514681069958 -0.07785692386831275
-0.10147969988888889 12.882638255555555 0.019971351722222225
-0.2719055260416666 13.022729131944446 -0.16523518402777776
1.035243 2.750342 0.80121
-0.23075455208333331 2.8609887291666665 -1.558177057291667
-1.552296578125 3.7744925729166665 -0.5983018854166666
0.18637245833333332 4.68518325 0.4649282083333333
0.45705091334776327 4.339804833827695 0.8660224773355244
0.48259628833333335 4.322876466666666 0.9077425516666667
0.31161746590909095 4.695788298295454 -1.096188464251894
0.2909283831349206 4.743668638988095 -0.9806081833333335
-0.6991418976932227 5.082344628924735 0.4239085909633809
-0.8352661020833333 4.974648994742063 0.5350932996031746
-0.9207601115993924 4.893124944173177 0.6199083804796006
-0.975578675298439 4.841465561157024 0.6734884148301193
-1.0051950452060285 4.820722789683542 0.6948856092301987
-1.2003072416666667 4.621402341666667 0.8905319250000001
-1.2878934022486774 4.556185623308767 0.9590497570861677
-1.4295782596981095 4.468268175641397 1.0514032779320985
-1.3657639173713465 4.50648146690366 1.0252843291524942
-0.707545458622685 5.152189649884259 -1.5942440462962963
-0.908703013671875 4.867170407552083 -2.2047478020833333
-0.12103398654336735 6.012196633163265 0.6893291366709183
-0.11699308333333334 5.9636759375 0.7675817083333334
-0.105096 5.797653 1.183246
-0.09319020333333333 5.771529088333335 1.2888897966666668
0.061339099933862426 5.4341806955687835 2.4449638574735446
-0.9493410824404762 5.260186125595239 2.112155382142857
-1.6088946100000001 6.17367015 -0.35325153000000004
-1.7865188889965986 6.0944287181831065 -0.42530874515589573
0.48142836369047615 6.832430740178572 0.5192555133928572
0.46838650000000004 6.79036275 0.543182
0.659543 6.7404530000000005 0.6582725
0.6929135416666667 6.731724531249999 0.6708909322916667
0.8080363583823241 6.657574080095042 0.7517333936018027
2.042052375 6.176781625 1.457689125
0.9732986695153487 6.072854196724025 2.0319659370875516
0.03373775 7.0604865 -0.7644555
0.13802281412551443 6.989169714609053 -0.8849282889403292
0.1453038 6.964214699999999 -0.92505265
0.2096350425611568 6.879789680246914 -1.0694115256229997
0.23636155892857139 6.84707911170635 -1.1441665429232803
0.43882791689814815 6.547385342314816 -1.765325043842593
0.7203731706613756 6.367188281878307 -2.411040025859788
-0.5393729477508123 7.275169024560715 0.614029220115108
-0.945740251736111 6.8005492157738106 1.4591396452132939
-1.380668625 6.575741307142858 1.9340721857142857
-1.41565975 6.5587749375 1.9707965937500003
-1.233714706520187 7.019206641237523 1.077144412704989
-1.3977169253373014 6.922105536990743 1.27127908594246
0.5529903569023569 7.714433592592592 -0.012040668911335579
0.8803968264282148 7.541929510731769 0.09943659682329575
0.9801433770833333 7.498580908333334 0.127683775
-1.2654473333333334 7.405245333333333 -1.2144633333333332
-1.331829513095238 7.3666527083333335 -1.2978905928571427
-1.7774127871666665 7.191348655333333 -1.7169324110000002
0.028680999999999998 8.0645879375 0.90894309375
0.03061575020582097 8.047993620519607 1.0288261080714671
0.02581369113888889 8.024627348497225 1.1104033095305554
0.017423627446263225 7.8736534551669966 1.700731273460648
0.2908723735535714 8.415930895208334 -0.4684043949166667
0.3908384686583333 8.34155169544375 -0.6524538780208333
0.41638700000000006 8.319034400000001 -0.6858004
0.6136185965091766 8.196885708506942 -1.0689314765066964
0.603735125 8.21962275 -1.033625625
0.8267767636262177 8.064361438024214 -1.4893092639903498
1.2459128971193414 7.985947205761317 -1.971230962962963
-0.19611602925925925 8.842570172222223 -1.7389557222222223
-0.21577716625 8.846414700625003 -1.9129588545833336
0.6739154791666666 9.816447877314815 -1.3374247337962963
0.7326709947916668 9.784137947916667 -1.4329939114583334
0.7562882975 9.767161885000002 -1.4709683175000003
-0.9377470497685185 10.234063625000001 0.5807780358796295
-1.003085 10.215572 0.638688
-1.2805072484567899 10.162451419753086 0.817630561728395
-1.189274669829913 10.181947970005945 0.7718811510274703
-1.3657790625 10.1794013125 0.9678116406249999
1.3183780833333334 10.458894874999999 0.24755587499999998
1.4589408941326532 10.452576382983748 0.29612145006613755
-0.178100544015873 10.86365406944577 0.858377849867725
0.16524850000000002 11.1014326875 -0.29997193749999995
0.4010249635416667 11.078858071875 -0.35960586562499997
1.2223707746216632 11.118586515765692 -0.37266501987328654
1.1783090334362138 10.977190701286007 -0.7106590475823046
0.8175471070016257 10.921985266365603 -0.8233004133029512
-1.2207530375000002 11.049038243055556 0.07360117361111111
-1.3522421041666668 11.017410104166666 0.0930961875
0.31475058333333333 11.394420445833333 0.20138117638888892
0.2249806759259259 11.349743654320985 -1.3911235648148148
-0.12127559501763668 0.2071443101190476 -0.21241964010141093
-0.041797655667162696 0.21940082970300098 -0.22047508612351185
0.05621367651909722 0.22594586590711804 -0.2245788927517361
-0.1068175903843631 0.13642395165945168 -0.22014155227600687
-0.19089205648148147 0.21243343240740745 0.11476080185185185
-0.20403624427962158 0.13938178097354498 0.10307172353342953
0.15004984375000005 0.296770759375 0.178665925
0.15779022969696968 0.21839690590909092 0.17158861946969695
-0.037106707313368056 0.23178850992476852 0.2234715322410301
0.24775560648148148 0.13053218634259262 0.006024455324074073
0.23981180477430555 0.023395643993055555 -0.061114167170138886
-0.20097177777777778 0.4500242222222222 -0.061390888888888884
-0.02525558333333333 0.7157139166666667 -0.18876545833333333
0.08195112500000001 0.8226363333333332 -0.18615474999999998
-0.10219982465277777 0.8190616788194444 -0.17158086689814814
-0.13435616527777777 0.5537236340277778 0.1610243465277778
-0.1786316625 0.693501846875 0.0755517625
0.10584116666666665 0.8293421666666666 0.1716225
0.155627 0.754084 0.108221
-0.12383284685019841 0.9803175704365078 -0.13951571329365076
0.04638052847222222 1.029105836631944 0.16955098304398145
-0.109342 1.127568 -0.151525
-0.17506660119047615 1.3320747504960315 0.02613117013888889
8.269136296296293E-4 1.3257565859259257 0.16382770562962962
0.018189 1.349891 0.162662
0.1050184837962963 1.4001935949074071 0.1462534976851852
0.1156805 1.204356625 -0.1261458125
-0.1101521640625 1.500124890625 -0.1423077578125
-0.09242124479166666 1.5492584687500002 -0.15165179166666667
-0.15936894375 1.6308485625 -0.04514274895833333
-0.14297007044444446 1.5371457210740742 -0.07861186566666667
-0.156416 1.550214 0.056129
0.14499299999999998 1.6041055000000002 -0.0686185
0.006243111111111111 1.8442781249999998 -0.15911005555555555
-0.08833441041666666 1.868418425 -0.15206208541666666
-0.11735309114583334 1.8285216805555553 -0.12244909635416665
-0.154354 1.793541 0.054125
-0.09016833333333332 1.6573521388888888 0.156632
0.15789296875000003 1.8020682395833332 0.02961747916666667
0.10157387500000001 1.913865625 0.13378574999999998
-0.171069625 2.197148333333333 0.016933708333333332
-0.13415579166666664 2.2235678749999996 0.076738375
-0.04201688888888889 2.1601578796296295 0.15220690740740742
0.14822261934156378 2.064422994855967 0.03007761316872428
0.0827140921875 2.0874008250000005 -0.14227369374999999
0.13989680555555556 2.146574388888889 -0.059295749999999994
0.101333 2.25565975 -0.117535375
0.04078825 2.467641560763889 -0.1420905925925926
0.04668258333333333 2.3970101666666666 -0.15422491666666666
-0.16866152083333333 2.31720040625 -0.012693947916666667
-0.10547470312499999 2.4037425078125 0.1174562109375
-0.01769293734567901 2.3843849240740735 0.14838242114197528
0.130983325 2.3808389416666667 -0.068191225
-0.0995305 2.742693375 0.11810770833333331
0.08674766666666667 2.753043 0.1305346666666667
0.07620547222222221 2.6613796111111108 0.13649863888888886
0.087656 2.530038 0.141838
0.08926054366666666 2.7663390231666667 -0.10111142133333333
-0.12878974999999998 2.9800524375 -0.06562925
-0.10397956666666666 2.890041713580247 0.10708436049382718
0.1450510829861111 2.898566484143519 0.009316677083333336
0.1198635 2.9440175 0.0697905
0.1212835 2.9155670000000002 0.067752
0.05410812499999999 3.1899944166666665 -0.1362999305555555
-0.025821828125 3.169894092013889 -0.13861774305555555
-0.15824896875 3.2267413593749996 -0.0021984531250000003
-0.103499 3.199629 0.099682
0.04283967172619048 3.1613106600198413 0.1342594314484127
0.072307 3.274321 0.133083
0.12248944791666666 3.3217559062500004 -0.05811828125
-0.08864012499999999 3.419554822916667 -0.12807542708333333
-0.015956906801146385 3.5828066814594366 -0.1370516033730159
0.050405551705404374 3.588557491472978 -0.14014776395975057
-0.154049 3.4847390000000003 0.0018985
0.12997780902777778 3.5017613888888883 0.02967563194444444
-0.0830645 3.8806396666666663 -0.13191033333333332
-0.1172385625 3.8500855625000003 -0.07873873958333333
-0.11083832833333335 3.7651277000000003 -0.09071447666666667
-0.14744333333333332 3.8216999166666668 0.01505208333333333
-0.0854065 3.819796 0.11188150000000001
0.06663844020061728 3.8204824969135807 -0.126935643904321
0.12109655000000003 3.8195683000000002 -0.04854905000000001
-0.08669058333333335 4.024696354166666 -0.121746875
-0.12265133333333333 3.9914096249999997 0.04883258333333333
0.13029453385416667 3.90425690625 0.003955244791666666
0.0856890798611111 4.1277873298611105 -0.09612002430555555
0.112505875 4.006339 -0.057301000000000005
-0.09556916666666666 4.2568901666666665 -0.11221933333333334
-0.12361651909722224 4.3108645659722225 -0.06568486979166666
-0.08313584375 4.4471427187499994 0.0977076875
-0.14547764814814812 4.406860384259259 -0.00767582175925926
-0.010779851851851853 4.374587064814815 0.10733024074074073
0.12486344444444444 4.281336888888888 -0.0076722222222222235
0.11426877916666667 4.365221362500001 -0.005800037500000001
-0.026866 4.6114915 -0.13490866666666668
-0.12861071296296295 4.67020762962963 0.010906074074074072
0.0536640625 4.585078125 0.0881146875
0.10462976500000001 4.689360918333333 -0.05571637666666667
0.08754961111111112 4.578997180555556 0.05477909722222222
0.07522021430555555 4.762471251388889 -0.09970011777777778
0.043761499999999995 4.903266749999999 -0.12654741666666666
-0.1225156875 4.865791927083333 -0.04759305208333333
-0.12337072090277777 4.831961145208333 0.01699166701388889
0.05767684444444446 4.847521166666667 0.08993955111111113
0.082005234375 4.992059859375001 -0.086350984375
-0.07987925752314814 5.204861553819445 -0.10968111226851851
-0.017843535595238092 5.1771732011904765 0.09959545845238095
0.049307638888888894 5.20166625 0.08700591666666666
0.11489683333333334 5.1340835 -0.03239516666666666
-0.055437916666666656 5.422785208333332 0.09563233333333333
0.03349985580632715 5.571598399170524 0.08682504114583334
0.051117906635802464 5.506296682484568 0.08069592013888889
0.05570466666666666 5.443866666666667 0.08593166666666666
0.106056 5.41847975 -0.04038325
-0.07352113888888889 5.778161579861111 -0.11630279513888889
-0.09886275000000001 5.865961083333333 -0.06922591666666666
-0.09684880555555556 5.740169333333333 0.03758200694444444
-0.03143728908730159 5.830273936970898 0.08608880667989419
-0.030181361670274166 5.604651215160533 0.012093657729076479
-0.09495669647762345 6.007848232102624 -0.08077059885030866
0.019106 6.057137 0.074491
0.07496156694444445 6.028746723194445 0.022246166666666668
0.06855870042438271 6.079860960648148 0.029076307677469132
-0.11668076010714287 6.408544908 -0.05567524832142857
-0.083044 6.293402 -0.118155
-0.07797191406250001 6.254321078125 0.057883265625
-0.10662887499999998 6.1954785 -0.049564629629629625
0.06799949913194443 6.331350233506943 -0.068719595703125
0.0320462 6.332166533333333 -0.12089286666666668
-0.02945162142857143 6.684282583333334 0.05247456084656085
-0.11312917360000002 6.4431749008 -2.1897760000000045E-4
0.07244983333333332 6.424550194444444 -0.04967786111111111
-0.026335130208333335 6.9560923160807295 0.0491813271484375
-0.036418526422548184 7.218207671343538 -0.1160697161901219
-0.07955402083333332 7.185024500000001 -0.11273066666666667
-0.09159739742063491 7.089412309126984 0.030637390476190476
-0.021183753968253966 7.102126498979592 0.05027948560090703
-0.02531704131944444 7.257803909375 1.5663177083333397E-4
-0.009064947916666666 7.655543291666666 -0.10828172916666667
0.021149666666666667 7.604241166666667 0.03236066666666666
0.016757 7.564019 0.043308
-0.03817410416666667 7.858713562499999 0.045128145833333334
-0.017286337500000002 8.295259741666667 0.018447904166666664
-0.035362435185185184 8.180679564814813 0.030815967592592593
0.030070472222222228 8.064815344135802 -0.04696203086419752
-0.03581251111111111 8.551768022222223 0.001399811111111111
-0.12210431893333334 8.788181739911112 -0.08844210213333335
-0.03350833333333333 8.816875625 -0.0082535
-0.024360781525573187 8.79713428979277 -0.09055136700837742
-0.13314999423280424 8.9474083165873 -0.056295912610229266
-0.10727935695389265 9.366806557634163 -0.016481863756613754
-0.03437111111111111 9.225711072916667 -0.08010170717592592
-0.03268934270833334 9.394060559166666 -0.06799054791666669
-0.066422415 9.630356486250001 -0.12231427625
-0.05843128571428571 9.530204267857144 -0.020715982142857144
-0.042190996263227504 9.622704832936506 -0.06043899027777778
-0.05828627314814814 9.875340416666667 -0.05455252314814815
-0.052787375 9.960072625 -0.08551800000000001
-0.160695 10.257193 -0.095162
-0.07042229166666666 10.240395509259258 -0.08009762962962963
-0.1490687044921875 10.535953539127604 -0.08507902076822915
-0.12317703067039441 10.716354767028376 -0.15267332654649854
-0.1383718320153088 10.983830897684651 -0.15196053476830418
-0.152257 11.375948666666666 -0.16320733333333332
-0.2579598888161376 12.38491948619048 -0.15381365267857144
-0.2307354259259259 12.474954185185185 -0.19827566666666666
-0.23589976666666668 12.641123833333333 -0.20133503333333336
0.503428 2.3592195 -0.5575055
0.6664685429894179 2.2442095916005287 -0.7099393005952381
0.3861584202158266 3.1883371135165106 0.3015724024470178
0.6985891428571427 2.956588994047619 0.551127607142857
1.0561150907306223 2.737584243104549 0.859270073626497
1.2414064000000002 2.6450771599999996 1.1632376400000002
-0.1279967554792109 3.207228142144016 -0.9038156021129393
-0.15737525 3.12794725 -1.0279665000000002
-0.16209217361111108 3.091590722222222 -1.081328472222222
-0.15810849999999999 3.119121 -1.0449745
-0.197132 3.874589 0.32157
-0.25161878668952903 3.7920542600663003 0.3801285956149977
-0.2741314243226191 3.7551656720527777 0.4355223080662037
-0.338196875 3.7063372500000002 0.50934275
-0.8148909166666667 3.168623886111111 1.435746611111111
0.09198506666666667 4.359988266666666 -0.05246693333333333
0.427202293560606 4.116985185606061 -0.1195193446969697
0.541051135723678 4.055149048961814 -0.1455324071019335
0.8983340251984127 3.8225703025793654 -0.2096415484126984
1.4871739990290662 3.553679020129871 -0.49257172330550403
1.6487856701388888 3.5099837981150794 -0.5630523467261905
-0.29833288707792205 4.530215689426406 -0.16316482338744587
-0.42352999999999996 4.4606855 -0.2186865
-0.4979794791666667 4.419347145833333 -0.2541833333333333
-0.6660889192708332 4.294022736979167 -0.3430476744791667
-0.8852749833099514 4.165010242779648 -0.4635668245432722
-0.9875391063492064 4.099546392063491 -0.5415550539682539
-1.2090819612195838 3.980897876575061 -0.7316727506065364
0.06978542000000001 4.898323990000001 0.19149455000000004
0.11038334563988096 4.811567020208334 0.2721831052232143
0.174794537037037 4.559165925925925 0.6950345740740742
0.2099046007045675 4.432674606524428 0.9617937831522217
0.26749882623737375 4.237468918737374 1.3669173403787878
0.27330816977163463 4.154340526448986 1.5238246245058762
0.5763878291666668 4.613986416666667 -0.919007675
0.84885096 4.36529744 -1.2967882133333333
1.032162328926282 4.242703925400642 -1.5191796131410258
1.2171984681944445 4.132727389027778 -1.7305704085416664
1.237636 4.120342 -1.753724
-0.2579029645833333 5.444093444405863 0.12203632943672839
-0.5174552304610732 5.248339659221466 0.21678633828420252
-0.8200959583333334 5.120476666666666 0.28315727777777777
-1.0493389416666667 5.0164366833333345 0.3280886333333334
-1.356821 4.8796859999999995 0.38816300000000004
-1.3311435 4.880215 0.3962725
-1.4706981791666662 4.8173279694444435 0.40349671898148143
-1.7122228485185187 4.7232181584375 0.3856549399570106
0.714279125 5.474878966666666 0.23974485
1.8285541250000001 4.9558151666666665 0.6800023333333334
2.03754084375 4.8975870624999995 0.7856619218750001
-0.4620544999999999 5.558450499999999 -0.8854598333333333
-1.173146 4.8646335 -1.705788333333333
-1.2443183750000002 4.8002805 -1.8039316250000001
-0.5888893704640091 5.482518025503454 1.5069919029296241
-0.5830289999999999 5.491223 1.4846829999999998
-0.6939400988520408 5.279827394345238 1.9472441726367629
1.25326912375 5.92480830375 -0.8726669362500001
1.6631295117875655 5.747064533378283 -1.135815838385222
1.618984238452381 5.761307635357143 -1.108602742057823
-0.2194524 6.86652525 -0.052383700000000005
-0.932768505664488 6.490746102046374 -0.15837915601190478
-1.4050150000000001 6.216554 -0.16252840000000002
0.5010033796296297 6.672717750000001 0.7650954236111109
0.6753609333333334 6.423830755555556 1.1595867555555557
0.7753826470370371 6.323951575185185 1.3453299639506173
0.7589011435185185 6.326750837962963 1.3347572314814813
-0.23913 6.559422 -2.404438
-2.034959291196429 7.025503975386906 1.115464832625
0.1558052166666667 7.887548083333333 -0.010023400000000002
0.1159375 7.8994135 -0.033256499999999994
0.33032249999999996 7.833273166666666 -0.013851166666666666
0.29745086394557824 7.8381271799319725 -0.03979493673469388
0.7388385416666666 7.643526296296295 -0.08067332407407407
1.2154151472727273 7.507895316363635 -0.18437818
-0.6325452532758908 7.787924378675492 -0.5514370651931401
-0.6848020018463405 7.752740080742944 -0.5852130117118607
-1.1419330379629629 7.474044913425926 -0.8946207974537036
-1.2586708204761905 7.402657592222223 -0.9343269092063493
-1.8104454583333331 7.140201130952381 -1.1925451904761903
-0.016337324218749998 8.377008239257814 0.010631305664062498
-0.02958313553906411 8.313379803339517 0.2054467812581598
0.14830749999999998 8.07576825 0.763875
0.1781455 8.053424 0.8213025
0.33305769568142357 7.912315359700521 1.0880465726562498
0.43607285917796507 7.804052716786541 1.3093255797899213
0.6258049900793651 7.660805819444443 1.6964823511904759
0.702776970704428 7.601249421984628 1.8666307745006319
0.06148216666666667 8.559430222222222 -0.18625819444444444
0.3725615268959436 8.368136056878305 -0.49886287951940034
0.3787246947431697 8.35885258683066 -0.5622238064932982
0.582992 8.250781861111111 -0.6361908253968254
0.574474 8.240536 -0.612494
0.7480943055555556 8.147657361111111 -0.7411846666666666
0.9170876277272727 8.060360713333333 -0.8844952295454545
1.027971817888869 7.998791979686016 -0.9638569146251286
1.2319446484374998 7.9115707330729155 -1.061815776909722
1.5045687417500901 7.811590215234486 -1.157493544555826
-0.1988016847850529 8.850838385988755 -0.011295325734126983
-0.2877768736974246 8.799523101192444 0.01792527300937736
-0.419216 8.750193 0.056782
-0.4418150763888889 8.721546267361113 0.048248614583333335
-1.034918244642857 8.461249828323412 0.2606838581349206
-1.3091666295103819 8.348869148346896 0.3678446309811075
-1.3713021875 8.323848770833333 0.39330491666666667
-1.79809599377303 8.17079313314422 0.5423153482337727
-1.85669 8.156724 0.5616295
-2.0643612549214128 8.11216665717398 0.6345873320300343
-2.28226487037037 8.071149296296294 0.7082037407407406
0.23616025511188268 8.975272367509001 0.11671844618055555
0.19763458976909215 9.012681024991394 0.09418087083434563
0.31555757380637434 8.940476381500376 0.17198759938586547
0.7688775555555554 8.765109999999998 0.4774096666666666
1.0403289229166666 8.669789201041667 0.6332572786458333
1.2024667500000001 8.62393125 0.71955075
1.3531035 8.5967845 0.821111
1.486182168579932 8.58152447731414 0.9069863718871478
-0.12088934375 9.241376828125 -0.243413625
-0.17150450510770973 9.177499940816327 -0.41864138356575964
-0.19742647080203746 9.10841388274303 -0.5609101137108262
-0.28096480555555553 8.994986777777777 -0.7711109166666665
-0.43975681070636097 8.869135264792899 -1.065834482696417
-0.48568725 8.817248000000001 -1.1663842500000001
-0.7315853159523811 8.648528856428571 -1.5868790956150798
-0.8333653268518519 8.598985855555556 -1.7777177185185185
-0.9019262809058148 8.575531180110138 -1.9023815792840941
-0.3068262944444444 9.26050085277778 0.5905501861111111
0.7878758333333333 9.423071833333333 -0.283702
1.1525953756920135 9.318184153436977 -0.37718748053718604
-0.18727212847222222 9.893834977430554 -0.12132777835648148
-0.9674028469328704 9.580497027488425 -0.3349150656828703
-0.042859355654761906 10.253773552083334 -0.2593196577380953
0.117295175 10.149616933333332 -0.5132242583333333
0.18554 10.100965 -0.616377
0.3183249107142857 10.003316678571426 -0.86118975
0.35857112 9.988105840000001 -0.94227676
0.3960613870448756 9.956229052948823 -1.0796377189473978
0.48532615195105816 9.891393755235889 -1.4939408453850673
-0.22631900566666668 10.474301813666669 -0.017485995666666667
-0.2998593306878306 10.412276843915343 0.07911369047619048
-0.4213404622272899 10.356711018704907 0.19737181512703567
0.820422452951389 10.934004844270833 -0.9164190855902776
0.3691991938333334 11.307628745499999 0.45596068100000003
0.4112363484347442 11.302497884237212 0.5064437503968254
0.4365485 11.291818499999998 0.5381244999999999
-0.07181733333333334 11.524739833333332 -0.575488
-0.2531892310069445 11.698618323515047 0.014021498906249999
-0.3533794560082305 11.640254918902604 0.35790768418381347
-0.529824082725469 11.582320872498197 0.9431085291170636
-0.09160977916666668 11.851179875 -0.16196634583333333
0.39230783015873016 11.788637949338623 -0.11342091441798942
-0.3572382182993197 11.962797472993197 -0.23990618285714285
-0.7284445203125 11.884723703125001 -0.5498027755208333
-0.38738500000000003 12.343773233333334 0.016679833333333335
-0.4986817166666668 12.326162100000001 0.1353425166666667
-0.6146132420816326 12.292899536693875 0.35801055174149654
-0.21363050617283946 12.741914314814814 -0.20777731481481482
-0.013531064492630383 12.877535855687357 0.1738271896031746
-0.036910875 12.87540925 0.13204549999999998
-0.3311419220679012 13.014048286458333 0.0999233142361111
-0.23336525 2.85701825 -1.56935975
-1.6270035390625 3.7305770546875 -0.6089228515625
0.3050686 4.716659 -1.0682100333333333
-0.555227080787037 5.198570890925927 0.2943662993518519
-0.6137814877777779 5.160067371250001 0.3524129402777778
-0.13130675 6.067399 0.6068122
-0.10417632500000001 5.843146125 1.10785295
0.072879 5.42348325 2.5053708749999997
-1.2889194720486112 6.315437769270834 -0.2193331888888889
-1.7086112921701389 6.126474163888888 -0.3992677870138889
0.7204057500000001 6.711271999999999 0.67499175
0.983242 6.05975 2.076637
0.5013553203703703 6.49459147839506 -1.90617797654321
-0.5950215491666667 7.2111627347222225 0.7146762876851853
-0.6700353888888888 7.132380648148148 0.8586711574074073
-0.7069358564814815 7.082554854907408 0.9304764610648147
-1.0150935847222222 7.152953740972222 0.8281777715277778
-1.2769124300972836 6.995751768213532 1.1224561414440717
0.8458194416666667 7.560439789583333 0.07364407083333334
-1.2480336666666667 7.408412833333333 -1.2095691666666668
0.029627 7.9815445 1.2291675
0.5808851309523809 8.229019335813492 -0.9963152961309523
0.857508 8.056288 -1.53637
1.0631149273333331 9.882753532 1.2948337085
0.5108160138888889 9.90992125 -1.1259619027777779
0.8143362632812501 9.731888875781252 -1.5652983265625
-1.4578681569444445 10.137364775 0.8837826465277778
-1.5525776388888888 10.12207548611111 0.9176636805555554
0.8928310312500001 10.454794520833332 0.2500816979166666
-0.2566233145833334 10.876557466319444 1.2900536350694445
0.5030448333333333 11.060495361111112 -0.37508580555555554
0.7391152793209878 11.05547786728395 -0.39438129783950615
0.9673997083333333 11.071773520833332 -0.3909643263888889
