ply
format ascii 1.0
comment VCGLIB generated
element vertex 853
property float x
property float y
property float z
element face 0
property list uchar int vertex_indices
end_header
0.003457140603566531 2.9593617950960214 0.1410065447530864
0.08198566927083334 2.9519092838541665 0.12536651822916667
-0.07414541770833333 3.2952191749999997 -0.13313157239583334
-0.04953501975446428 3.928221597767857 -0.13630767656249998
0.12718851929012343 4.113643680555555 -0.003950845679012346
0.04789775 4.638093812499999 -0.13566575
-0.12123238318376069 4.68578797972059 -0.07411823644497866
-0.15194671389753953 4.647590532971478 -0.09122332024232853
0.0907061875 4.60354375 -0.07931846875000001
0.11703983352623457 5.109894626864712 -0.02950530780606996
0.08228456271164021 5.43590297337963 0.05411607603174602
0.08924120123456791 5.507826962345679 -0.06450163827160493
0.08196750925925925 5.777602249537037 0.04110056242283951
0.04699293679532419 5.882278790215682 0.06050959686486968
0.07676520769557822 5.776684741543839 -0.07507310973521353
-0.0991585980085244 5.871837397898294 -0.0685775264329806
-0.11376499875992063 6.3543552993551575 -0.008826525049603176
0.06291811712962964 6.337604501851851 0.014504233796296296
-0.05595767708333333 6.6000046015625 -0.12539848958333333
-0.09585460416666666 6.781430685416667 0.023846079861111112
0.04205536458333333 6.858596302083333 0.019349072916666665
-0.11178500376157408 7.189757221223958 -0.05976853521412037
0.008231039499999999 7.200769516952381 0.03699927623809524
-0.09815048888888889 7.455482944444445 -0.07835343611111109
-0.04273188722222222 7.464541970000001 0.05144209541666667
-0.11033671898148148 8.014661470216048 -0.06805416040123455
-0.0720036037326389 8.350693814518229 0.024583358355034723
-0.11028826384206297 8.104639277784235 2.651172143037988E-4
-0.11384956648133451 8.430790374196631 -0.08829664949241255
-0.12037306313333335 8.519830952866668 -0.015499703244444447
-0.04611385557613168 8.626035084757495 -0.10154170044385656
-0.05266601894841271 9.024962683244047 -0.002906926473214286
-0.027251027217633082 9.0264217920176 -0.08695900014172335
-0.048296495014400205 9.285317737541948 -0.09533909132906197
-0.1225183617063492 9.18567067140377 -0.026033039360119047
-0.13290359026170265 9.624395421143582 -0.08931113904160237
-0.11681387049062048 9.525719351940035 -0.021417212778579445
-0.05137954481641516 9.528909851238538 -0.08935387897752582
-0.06600901041666665 9.921999197916668 -0.04703688541666667
-0.06904999940854377 9.867559597538639 -0.1098368536577862
-0.1155987166550926 9.952456482246527 -0.04114824329398148
-0.1913590398873457 10.92092671815432 -0.14067573447839507
-0.20802897163758513 11.281725707157708 -0.1631986383756987
-0.15985274160929105 11.272383043071178 -0.16895817686543013
-0.16060588162901915 11.351248074760889 -0.16779332721306472
-0.23286128702032555 12.359416174958604 -0.17812024388150108
-0.24413727542299046 12.771257958729668 -0.20263303119820644
-0.24671520088593768 12.690566760173596 -0.20001517502209198
-0.2525649905742751 12.849278521496869 -0.20500890701387764
-0.2560892441807708 12.931455491242561 -0.2116834157988082
0.0137146405 2.8528524778333337 -0.019431034166666666
0.06177208472083334 2.7920347770180554 -0.07674303289027778
0.21929302546296295 2.630882925925926 -0.24266055555555557
0.1985985 2.6496385 -0.219206
-0.12001525269097221 3.1045827728174604 0.01082807238343254
-0.04280619791666666 3.1435110416666667 -0.005746510416666666
-0.2968090675352953 2.968527058494621 0.02097666212553858
-0.7315701052000001 2.6948314986000006 0.0748391013
-0.7750259036909067 2.669704952369895 0.08796433727151538
-0.8178101666666666 2.6461445 0.09590488888888889
-1.275462982851474 2.4311867390920257 0.16523041002834468
0.05294586783050411 3.4646764169881683 0.07673424893904321
1.173234215722242 2.678514771089231 1.0526958813115823
-0.11066798696602392 2.850771988158536 -1.499521595699671
-0.45964045056294167 4.428908936992666 -0.23871838280811625
-0.38514383203125 4.469277383710938 -0.20134031609374997
0.2502205205128205 4.905319186267806 -0.5387561895726495
0.2916829727237655 4.859854042574589 -0.6078121675
0.545589082010582 4.649297503009259 -0.8703180991402115
-0.37725200000000003 5.340673875 0.20487725
-0.47528332066109996 5.27888903207904 0.22269020385254948
0.41488711111111104 5.6464543888888885 0.10615391666666665
0.016157345572916666 6.123293155902777 -0.11346815112847222
-0.14987590229166667 6.005347008125 -0.25847102770833336
-0.6759645769557823 5.316950760522959 -1.1767407024872445
-1.0435043467520253 4.983678367241753 -1.5363192171115452
-0.05287375687830687 6.442178176719576 0.05543963386243386
-0.11980428066666667 6.104110454333334 0.4853121246666667
-0.18223 6.001242 0.696329
-0.3510582973333334 5.777213618000001 0.9976004026666667
-0.3929458754747474 5.720744322262626 1.0757894219393938
-0.6569725605118617 5.3791307721590105 1.72392117138115
-0.7267330995093216 5.167490298114722 2.222999109675093
-0.7315873211722884 5.153073560978084 2.2599685422427402
0.3781157979976852 6.434765469803242 -0.30827901822916665
0.9260973343508344 6.123561924767882 -0.6224238547854344
1.3644559638691043 5.864170041361981 -0.9546726447471511
-0.1998309424189815 6.925611685431135 -0.04977465513599537
-0.12312779196428572 6.9493083982142885 -0.02345170178571429
-0.3746473703703704 6.800356851851852 -0.05094928703703703
-0.31591775 6.804497479166667 -0.05694110416666666
-0.6353179111625514 6.624324505967077 -0.11361586574074074
-0.7841605625317991 6.551636375157967 -0.1182983331900156
-1.2964578101553046 6.296967010960193 -0.18536468439693782
-2.242535797619047 5.79823419047619 -0.052922952380952376
0.071978 7.182394 0.05135
0.39071500000000003 6.8094470000000005 0.49974050000000003
0.5521340888888889 6.588700222222222 0.8967539111111112
0.641208 6.485221666666666 1.0723724444444445
0.8048668125 6.2938675746527775 1.4028942690972221
0.9237616587924702 6.179901050004919 1.5853926740423718
-0.04894760460648148 7.3663065785648145 -0.10748074074074075
0.012015896693121694 7.291243480199433 -0.34975761330382577
-0.02668866580761317 7.342430756022634 -0.2450482074063786
-0.05462485 6.891179316666667 -1.2762782916666668
-0.16134546381287362 6.630513903239882 -2.093627103625755
-0.13780333602430556 6.660542166927083 -1.9856393553819445
-0.45262791446431677 7.410531513612087 0.4344090886263808
-1.0996617603269085 7.158705385613935 0.7923725497022378
-0.9613965228510981 7.58636003077723 -0.8262879141833283
-1.956959441358025 7.075654894691358 -1.269231520462963
0.08408669047619047 8.173445604761902 0.5614613666666667
0.5220560000000001 9.496470375 -0.226931125
-1.2231469582426402 9.498612526672368 -0.3984846750085205
-1.5452910774526702 9.413613751723217 -0.48906171885102057
-1.6407379092158465 9.39376103065375 -0.5184940299169969
0.5264251479263764 9.729205762475257 1.4140938229113462
0.16881967942760942 10.103354215526094 -0.6176084955555555
0.2072790202781786 10.077001166807959 -0.6731135156044572
0.26757512653977583 10.045111418893669 -0.764107097062816
0.4306116327916677 9.925571233014582 -1.258177783847575
-0.9941327065476191 9.993838821428572 1.218146206547619
0.6975245597091968 10.49664611373306 0.15231417623518742
1.197565953198422 10.467927378238445 0.2055355603265817
1.1298456666666665 10.468678333333333 0.19653199999999998
1.3642285189103869 10.47918643965167 0.1859906251742931
1.5200773694652414 10.49407493637068 0.16766984050847697
-0.6248934944149228 10.50973742490039 -0.8436568998841816
-0.8447663052242784 10.40976260121516 -1.137564705648249
-0.03566880055555556 10.837778383333333 0.49919701722222226
0.034620450871320034 10.809205316903293 0.6632642998844572
0.18980022825434775 10.744267582384797 1.0533077236673265
0.447170978875 11.016018330125 -0.5280487655
0.6605904805555556 10.952140224691359 -0.7116243114197531
0.909308 10.935089 -1.046395
-0.70312996875 11.185023114583332 -0.0059094270833333325
-1.0539225214120371 11.099345281587578 0.06546182624421296
-0.025015787654320987 11.446050862962963 -0.03984958209876543
0.052473893333333334 11.422222111157406 0.03923320518518518
0.032105499999999995 11.432509750000001 0.018213625
0.11341689850000002 11.410821473583333 0.09282383883333334
0.18856787351190474 11.386480365008502 0.17096675079719387
0.6112878906250001 11.305074734375 0.8856510625
-0.06901544452055514 11.52128064927406 -0.5967147418272863
-0.021906110303571428 11.494549261773807 -0.7735095518839286
-0.01894086922080177 11.486961312458918 -0.8356798427279641
-0.18847107962570214 12.121768197813834 -0.10482901258178097
0.04476772521907347 12.075909158531166 0.3077387669922126
0.15939840340671296 12.06568614345301 0.4337564971773149
-0.12553996345833332 12.247429051708332 -0.24917183683333333
0.20981246753320032 12.21910269099524 -0.40136395887898085
0.269070005 12.21814968 -0.42526045500000004
0.48932168596707815 12.228218034547325 -0.4984076280246913
-0.3387969209028172 12.353077581727486 -0.045472762148561864
0.26169875 12.45203925 0.07375475000000001
-0.16133 12.662993 0.139769
1.2897450030864195 2.6146780884259258 0.9463032475308643
1.0880091796875 3.7084718710937494 -0.207445673828125
1.5836994999999998 3.422614875 -0.2201641614583333
1.676895358281893 3.3843470321887863 -0.251908952186214
1.8118441602366258 3.3296549524176955 -0.30185729115226334
1.67211 3.33885 -0.132299
-1.7179349166666666 3.68097675 -0.6219816041666666
0.803943622698092 3.9720922628787876 1.3014177682671155
0.831395857604798 3.9482635964292934 1.3373141247083336
0.8982479930555556 3.8910263171296298 1.4220010902777778
0.9536039299999999 3.8373433524074074 1.5017310853703707
0.3206343427734375 4.09470198046875 1.7578562646484375
0.2822667971374421 4.7680614411372 -0.9209284169830085
0.5311501562500001 4.497002159895834 -1.851475009375
-1.2028640958531585 4.628030031943467 0.8890169530502982
-1.7043268207311812 4.322566351641974 1.1902810614973849
-1.5565206271787133 4.785239018574817 0.4051081329168306
-1.6225957688285746 4.363461073526746 1.4255129755028253
-0.6390232015658566 5.279450951605182 -1.3458900906040725
0.05135906547728245 5.442376061602658 2.3964501168351835
0.03254326532879818 5.456603911298186 2.3052635151133787
-0.14078790347945602 5.446363729651331 2.157250775557002
-1.9676917122686148 6.008629283372348 -0.4790558185807774
-2.042371299180619 5.974844107475285 -0.49820340536572505
1.1930999183375848 6.459112758312075 1.0395425378528913
1.9269742311973348 6.20753033207917 1.410133393415638
0.9283578333056185 6.133520333170963 1.8226491783264747
0.9466693269547325 6.109779382458847 1.9076423984053497
1.5351438271527778 6.335620919794972 1.307638983171296
1.5716097230324075 6.326646220756173 1.3507606117283952
1.61364274375 6.3173525517361115 1.39954999375
1.808229433173501 6.284433548568856 1.6268616617770797
0.5337864691218392 6.467023585917607 -1.9899282444958377
0.6901207139533085 6.383067201569264 -2.3445003098117656
-0.089478 6.641574 -2.216362
-0.06508185179166666 6.638698716500001 -2.336905449541667
-0.8225683950000001 6.925423864999999 1.2133662777777778
-1.0423760540636253 7.17163508897098 0.7634454769949737
-1.1532638316666668 7.059908058333334 0.9916589462962963
-1.429562 6.909443 1.306164
-1.0821811946097881 6.70069965162037 1.8791808515211639
1.176438188888889 7.418792372222223 0.17985487222222224
1.2736336131751085 7.368375382050215 0.21537311740790047
1.8450658895747598 7.187857969821673 0.3837881609224965
1.996353 7.159258333333332 0.43815933333333323
-1.376125662699754 7.34955023393648 -1.335732484837801
-1.7243607544752069 7.211841719353553 -1.6671783407225635
0.029424940656462582 8.115419679074831 0.747090900653061
0.019539245513281914 7.966248162766515 1.3204413577774412
-0.03289673905343788 7.776566474788901 2.2261348550801285
0.7528212283284557 8.103154674667172 -1.352175002224827
1.071216 8.008324 -1.784308
1.2172393411458333 7.928844182291666 -1.1506016197916666
1.2953114155092593 7.906132016203703 -1.235839951388889
-0.22805943744419643 9.052611908605197 -0.675983969763908
-0.2011182777777778 9.0633135625 -0.7253983871527777
-0.185082875 9.023061875 -0.8658505
-0.18243386501736109 8.947285583178324 -1.1443240272197421
-0.18209124869791665 8.888543794270833 -1.4078648352864582
-0.18406494791666664 8.863253026041665 -1.4956724114583333
-0.22577426543209875 8.848973828703704 -2.013761175925926
-0.55568436328125 8.99023896875 1.7151009453125
0.46468273888888884 9.944150279444445 0.6566918566666666
0.716727 9.9004885 0.9166785
0.8677467737268518 9.876454219907409 1.084408959837963
-0.45144349055844485 10.336460672595166 0.2456903505539021
0.01755960242960165 0.12983498739411511 -0.22908122249110607
-0.04833095953931051 0.0418124415922619 -0.2317334884858631
-0.1242276441186557 0.04529684653635117 -0.22689786374028353
-0.1629634353780864 0.03521137110339506 0.17965458269675927
0.21563535506944445 0.12282382517361111 0.08056554611111111
-0.047433743739666 0.3754938662589561 -0.2098657639050099
-0.10223647569444444 0.44599669791666663 -0.2025960277777778
-0.0022614585813492067 0.3752062693617724 -0.21199519786706347
-0.1472957872142857 0.30672819437301585 -0.1768361130873016
-0.1722395514274691 0.3484633490354938 -0.1318694839891975
-0.23302288259830445 0.308228781678391 -0.013870359957461519
-0.1683639020855379 0.37660182720899466 0.1297624001984127
-0.19921890624999997 0.38403249652777777 0.0807442986111111
-0.2019256132734995 0.2762543216223338 0.08983773344106524
-0.10639933864772728 0.27834402653333334 0.2170692169507576
0.1659105678425926 0.37585949211342584 0.14111165069753084
-0.05935519898405349 0.6417382579621055 -0.19187685390689296
-0.11861941724537035 0.6334541663194443 -0.16314743136574072
-0.19682666675106095 0.7138958925781249 0.04390605125626929
-0.1840324410416667 0.6294563441666667 -0.06859073708333333
-0.0217466880787037 0.4272020706018519 0.20992242582947532
0.12453913440233236 0.7053970929300291 0.17509343833819244
0.13766228023933533 0.6096730640500992 0.16286835353422624
-0.15866606838624336 0.8831221177420145 -0.08392593568489122
-0.16691625925925926 0.8187555060185185 -0.07579148749999999
-0.05160349800347222 0.8033135346006944 0.18705092100694445
-0.11915678360083616 0.8867497029301303 0.14659976947249384
-0.055765706292516995 0.8897985836404004 0.18057643100907028
-0.11966484375 0.8234853333333334 0.15243338541666665
0.15009507034118968 0.8929623726694724 0.10069106897348484
0.1435869767857143 0.965266034548611 0.10406620983382936
0.16593754205522485 0.8010965855076059 0.0818346298445767
0.15754631479283643 0.9687994018920967 -0.07852882021427222
0.03947377874228395 1.2960089922839506 -0.1656007364969136
0.04250442432556012 1.2135057876085962 0.16267685379515318
0.1266024375 1.2085428333333332 0.11444872916666667
0.1444112506319812 1.0436071441651968 0.09247640407848326
0.13085968072089946 1.206597734126984 -0.10242196478174603
0.04934138777777778 1.652089197222222 -0.16163958833333333
0.03852061111111111 1.4595570277777776 -0.16503425
-0.140578375 1.441886125 0.08314475
-0.10579232384259259 1.395071747974537 0.13766125671296298
0.11296844583333332 1.5726154666666667 0.1267553458333333
0.15385889583333334 1.5725734635416668 -0.055813921875000005
0.133212 1.56342 -0.08829300000000001
0.09868 1.8233395 0.14328449999999998
0.094145 1.680683 -0.145413
0.17505044444444443 1.7198862592592592 -0.01803885185185185
-0.15792232324808936 2.05654614478689 -0.03971225895061729
-0.13345553541666666 1.9061672305555555 0.08430174791666667
-0.13025903125000002 1.9458714756944444 0.088332515625
0.13474085322359397 2.0461570269204388 0.06343126886145405
0.1300987361111111 1.973077375 -0.08021893055555554
0.11311197500000002 2.0329384999999998 -0.1050872
0.0028223611111111106 2.2726721232638885 -0.153952234375
-0.06553527083333333 2.268169076388889 -0.14804748148148145
-0.123952 2.274457 -0.100499
-0.16135618402777777 2.388310402777778 -0.010949239583333333
0.15115852638888888 2.3051699222222224 -0.008832514583333333
0.11007033125000001 2.3638337822916666 -0.098541853125
-0.098712609375 2.5630639375 -0.14028534374999999
-0.15389838888888888 2.549249609375 -0.033961953125
-0.16433915625 2.7428584375 0.002982010416666666
-0.04640999305555556 2.5464717465277777 0.1479382361111111
0.11825346701388886 2.724621878472222 -0.0947742829861111
0.14693204166666668 2.622249958333333 -0.020390590277777777
0.017982796759259262 2.880255499421296 -0.14457323223379628
-0.08441711805555555 2.829214583333333 -0.1344422934027778
-0.082879 2.82312 -0.140825
-0.04241751540000001 2.7092823668 -0.14475302259999998
-0.1479494012345679 2.8158161440329215 -0.034799666666666666
-0.15418545833333333 2.8451286666666666 0.02014575
0.020753533277777778 2.8903986634444445 0.13901204625925925
0.14375957925347221 2.8831138661168985 -0.011570707682291667
0.05709594665316358 3.043112111477624 -0.14225438821373457
-0.10928308333333334 3.0710518333333328 -0.10049583333333334
-0.05217148447089946 3.113106647517636 0.13918758677689594
-0.025365691406249998 3.2279481809895834 0.1383798671875
0.097774875 3.093267 -0.10171799999999999
0.06815491666666666 3.424044583333333 -0.1218800625
-0.15254599305555555 3.453557625 -0.007222006944444444
-0.096510896875 3.4958065229166664 0.10059315364583332
-0.06724772125 3.4629253672619047 0.12954965747023808
0.10209517685395622 3.4452377720208034 0.08083386993296056
0.054498000000000005 3.5104835000000003 0.1287915
0.12047378819444443 3.3855944652777774 0.05386680555555555
0.09710674999999999 3.3715677499999996 -0.09656891666666667
-0.032155098003133896 3.7618383623336187 -0.11051080658091171
0.030482153981481477 3.7157806250925924 -0.13874585027777778
-0.04632790204750882 3.601870869901896 -0.13369312028769842
-0.11249979687499999 3.6747666822916667 0.071210484375
0.13424550885416667 3.6300390140625 -0.027057767187499998
0.075873828125 3.773581359375 0.117499578125
0.13194855675429895 3.884703267691799 -0.009966979910714286
0.11170916666666665 3.5453087083333332 -0.06991418055555555
-0.025694180555555557 4.0311181694444445 -0.13770776805555557
-0.12319902777777776 3.9221213611111105 -0.06749199074074073
-0.06389356944085088 4.052649087219299 0.0837217707275859
-0.11092005512152776 3.9540457894965275 0.06822478993055554
0.0206950546875 3.926406015625 0.1180539296875
0.09759560503472223 4.004574526041667 0.060624796875
0.01607709259259259 4.232127027777778 -0.139727
0.0296383125 4.376814187500001 -0.139979875
-0.07014294444444444 4.304152856481481 0.10622265972222222
-0.12326569135802468 4.178795691358025 0.042479530864197534
0.04743582777777777 4.220468444444444 0.10538826111111112
0.12681181944444445 4.192628766975308 -0.00741581635802469
-0.110069 4.567701 -0.085884
-0.10080064583333334 4.45620853125 -0.10769167708333333
-0.05513370833333334 4.611574825 -0.12955549583333334
-0.133762 4.5864545 0.0145315
0.05685498274739583 4.5167650546875 0.09802866276041668
0.11620679398148148 4.553720384002057 -2.111139403292179E-4
0.09032799652777776 4.532467506944444 0.05028091319444444
0.04096467374999999 4.421041792694445 -0.030124691194444445
0.013821796441137568 4.780980560321429 -0.13319208620304232
-0.07854066203703702 4.943340999999999 -0.1175948912037037
0.027132000000000003 4.720881 0.097835
-0.025872982553155004 4.856240569487311 0.10226140822187926
0.08744504444444445 4.796909266666666 0.0519945
0.08249995621693122 4.701751592063491 0.06168123902116402
-0.1249643343253968 5.192877870008188 -0.007303949152809271
-0.10278682458333335 5.067077930416667 0.04621220708333333
0.11228945833333333 5.046624625 -0.038092875
-0.07906204069830246 5.44757061255787 -0.08801477061342591
0.0012033680555555554 5.444265 -0.12118419791666665
-0.1010601648888889 5.348820736888889 -0.06311970355555556
-0.12245606236111112 5.437965270347223 0.0028932225694444443
0.10639447222222223 5.385482986111111 0.009081791666666667
0.027330825231481483 5.870510769675925 -0.11460890277777776
-0.10382383333333334 5.743863572916666 -0.05717083333333334
-0.11482376868849617 5.5926476808700984 2.4911558050062376E-4
-0.021864673186728394 5.66682120472608 0.09099997982253086
0.07667154002976193 5.698905980654762 0.0508817630952381
0.10001533333333332 5.603883 -0.03131266666666666
0.10459361241319444 5.789450972222222 -0.007512793511284721
0.0142308 6.050662404166666 -0.1224638375
-0.11575794312169312 5.893668307208995 -0.036784766865079366
-0.100856 5.961453333333332 -0.06925455555555556
-0.10368660650720164 5.927043932471706 0.022006643557098766
-0.07346202416666667 5.929416708750001 0.05484606125
0.0256079609375 5.92176839453125 0.08007725390625
-0.05154826899092971 6.1067388538596 0.06729062851946334
0.07803082973251027 6.008774798675411 -0.06724750855195473
0.02060580109126984 6.190783008928571 -0.10729116319444446
0.002236666666666667 6.363531666666667 0.06117999999999999
0.022515833333333336 6.177867025 0.06414585833333333
0.06063347222222222 6.278978555555555 0.025851222222222223
-0.1079382015873016 6.593901731269842 -0.07701898952380953
-0.1017551741898148 6.497529859085647 -0.08617697873263888
-0.11484968390022676 6.526803018252551 -0.004400929163832198
-0.06684122916666665 6.522717652343751 0.046452377604166664
0.03767137962962963 6.423025851851851 0.01132775925925926
-0.10881374189814816 6.710378750231483 -0.0761698912037037
-0.03555551427777777 6.851802034888889 0.05312515705555555
-0.046929958333333334 6.773897502777778 0.04936022222222222
0.04886614543999565 6.9512622344563795 -9.808484429253464E-4
0.033767047222222214 6.693286548809525 -0.031095869047619046
0.046753779872134034 6.772817514991182 -0.07483840990823412
0.040653101401748964 6.853416358860597 -0.08874219598765433
0.015406963194444446 7.0237113178015695 -0.10936211446759259
-0.10881663541666667 7.038451927083333 0.002071572916666667
-0.1149268875 7.114022104166667 -0.030937433333333333
0.004039504496763984 7.027591313498953 0.04849101838762125
0.03855265451388889 7.027896672569445 0.017921443402777775
-0.123565 7.421391 -0.019968
0.03889149379581404 7.259672861003809 -1.0147758367091064E-4
0.04220205572916667 7.382685220572916 0.0022046161458333336
-0.09054024895833333 7.67803095 -0.09469423229166667
-0.11549031152395833 7.536956124525695 -0.023494764070833337
-0.044931915588444366 7.596506637771523 0.04468021329005147
0.026048636444444447 7.602657264222221 -0.07489322194444445
-0.10983724461329769 7.853455049412154 -0.06086720880704365
-0.123367 7.856267 -0.036063
-0.11116539831386783 7.804559717127876 -0.011804911720942059
0.03745426910686728 7.848339677290703 -0.045303541353202165
0.03883805167824074 7.790427051645172 -0.028814108887235446
-0.06115547796654541 8.125037383983685 -0.10418412364280202
0.001630333333333333 8.103846666666666 -0.08870827777777776
-0.11822665154320985 8.184958622266313 -0.025717899426807758
-0.11670638750000001 8.014513704212963 -0.01423375037037037
-0.026232535563973064 8.009039756874298 -0.02179351676487093
0.025768286435185184 8.113291484472736 -0.03477657667695473
-0.03414219020897634 8.28995289851629 -0.1065922651501874
-0.05121360533333333 8.366199368 -0.10990054866666665
-0.11441652439774755 8.36427245301704 -0.08357788733264032
-0.0020211049011752144 8.37588047960292 -0.07768226157852565
-0.002422459125800415 8.442332173542557 -0.06981001373616749
-0.03053369276738473 8.519405645290059 -0.10239315999976378
-0.006037231823192239 8.293891006602733 -0.08954992929894179
-0.12430914229828041 8.683408204809027 -0.08638401292658729
-0.12153568416666669 8.632966820833332 -0.012580820000000001
-0.02689084259259259 8.600371258101852 0.00475060474537037
-0.21296414960010815 8.851721967704792 -0.019144313123557456
-0.041722505786623676 8.94559505253224 -0.09302039363384591
-0.13938416666666667 9.18523865 -0.06946645833333333
-0.06061475 9.22997825 -0.0080165
-0.057839543082745436 9.630462803129776 -0.10205569435699588
-0.133726 9.6211445 -0.04708483333333333
-0.12004437412454086 9.459146901913227 -0.013928860545186716
-0.13416814692156623 9.452323617515658 -0.07717905128192148
-0.08472676741071428 9.764351047276786 -0.027508839330357145
-0.066474 9.709117999999998 -0.03259666666666666
-0.054851846404320975 9.765825641944446 -0.093048708595679
-0.06683989583333333 9.9595276875 -0.11628794444444446
-0.06759868711843713 10.156367881196582 -0.04508666648351649
-0.11389264861111109 10.117618160714285 -0.04350973214285714
-0.12567631770833332 10.00264771267361 -0.04451835243055556
-0.05227802699239577 10.11895577016555 -0.003346289713549944
-0.07696721861111111 10.185768826840278 -0.07668574038194445
-0.13806721576814573 10.362426640109593 -0.11068036582907653
-0.13634521450594614 10.284641447246992 -0.10364243600424236
-0.08204426805555558 10.274656228703705 -0.08513867962962963
-0.08513754459635417 10.429282536865236 -0.10652832779947917
-0.08162886852272729 10.333505253106061 -0.11078103587121212
-0.14335128807315659 10.62639093728581 -0.11246832180015785
-0.14233649143518523 10.673325648402777 -0.10744516877314814
-0.05967887020438763 10.658450785734694 -0.10913337250118371
-0.060438501547280844 10.627046757144546 -0.10727553968817638
-0.12936983333333332 10.611828663888888 -0.15401261111111111
-0.08904726666666668 10.529419766666667 -0.12107266666666668
-0.15222285490196077 10.840708747058823 -0.15896398039215687
-0.15984177500000002 10.832178175000001 -0.11293273333333334
-0.15389760832025118 10.78431067084478 -0.1127059692160518
-0.1562507527991106 11.201157171329886 -0.1682727031029734
-0.16521633697916668 11.192381523437499 -0.12756539583333332
-0.15940725 11.256434375000001 -0.133921375
-0.19763514040404045 11.44321321628788 -0.16126579191919194
-0.16458941631944443 11.455884138888887 -0.16793116493055554
-0.28148265177314813 11.989684181212962 -0.20271676069444444
-0.21104598125 11.945777177083334 -0.16789427986111113
-0.21868126873870844 12.264191071346815 -0.18100623508798427
-0.2316340820892472 12.43235141918133 -0.1875560681151598
-0.2648443846153846 12.941884538461538 -0.21189430769230772
-0.28772585714285714 13.248011333333332 -0.20750447619047618
-0.26817587142857147 13.184459957142856 -0.21769550000000001
-0.262424 13.089225333333333 -0.221591
0.2972263145943562 2.566120842041446 -0.3179944778439153
0.3427512222222222 2.5193703777777774 -0.36544444444444446
0.444543662037037 2.425183954089506 -0.48291992361111113
0.017055355173903382 3.5205339302627428 0.005734354412565637
0.19849536924775507 3.3546175723804663 0.14783562703745384
0.2314140533718111 3.323333390628157 0.17631279419356854
0.25155285714285713 3.3050352380952384 0.18467542857142855
0.32814475 3.250493041666666 0.24678316666666666
0.686538167857143 2.9678191496031743 0.5444283571428571
0.6176752182578944 3.0201735806008374 0.48912679266627573
0.679019 2.977403 0.524816
1.2217240911892664 2.6550268195855256 1.13138987440192
0.02508421975584215 3.792623762207892 -0.10811354275518077
-0.04917802408796296 3.632837433779959 -0.2672377999940748
-0.06919593414996209 3.5513930059090213 -0.3647094905999349
-0.07368191001683501 3.4881320011784513 -0.4637699792929293
-0.07187589121038426 3.519128783933248 -0.42637775911095077
-0.10240723635802468 3.388858523641975 -0.6116648983950618
-0.10462676122134296 3.352687625484763 -0.6848050406840849
-0.09078760000000002 3.3921419999999998 -0.6042140000000001
-0.10298487749287749 3.321077866096866 -0.7144242792022792
-0.14959893283867126 3.129786878466286 -1.0210285712560692
-0.16348972433378955 2.9794913419431435 -1.2683304644989328
-0.19548766457694444 2.921994810764306 -1.4038049156732966
-0.15596191982764004 2.937923338830354 -1.342385689044987
-0.03764122848072562 2.739702993378685 -1.703301748117914
-0.028617732561728393 4.0976410117283955 0.0061757905864197535
-0.3134153071722795 3.712284735306341 0.4955523072453739
-0.3402330286473365 3.6776790946668214 0.5371934243491141
-0.3989699973089236 3.6175140442010134 0.6345464893524078
-0.424047 3.574323 0.684554
-0.5301378010362763 3.48094683324179 0.8486959765821078
-0.6820992883419179 3.298115536761631 1.1757859556173509
-0.7688580600097327 3.2113011818673716 1.3453094620891204
-0.7951660411735744 3.1854211197675877 1.3968472160488927
-0.8541735600458052 3.1351819033466635 1.5130779919022816
-0.8764935955496652 3.114999673493304 1.5552843611607143
-0.910017763110223 3.0863655311555105 1.6208910376989678
0.11294817100198411 4.364402435404265 -0.0367650661359127
0.11352976887755101 4.288978694982992 -0.07388813031462585
0.39904895061728396 4.154371820987654 -0.10432703395061728
0.3505213444444444 4.186343340873016 -0.1020222468253968
0.44407441143530324 4.113535050497113 -0.12117055421616629
0.5420262915851491 4.048632136237712 -0.15127285502355067
0.594449 4.0308165 -0.15202575000000002
0.7867385749794584 3.891708550360734 -0.17995116964465277
0.8460581633754969 3.8585081618471575 -0.1898199396245001
1.0958035368681485 3.7127607557336155 -0.2835112727146352
0.9540598121882657 3.7963226316374055 -0.23358334024977667
0.9462596265481 3.7966917765875423 -0.21232344976479076
1.2929529378787878 3.6209528196969694 -0.39929840681818185
1.3576088032630285 3.5972245191700676 -0.42805638330460105
1.4257932125460755 3.572620860097472 -0.45807259964399427
1.528061595657958 3.5398993848840186 -0.5120279471806645
1.7745885000275345 3.482288769264658 -0.620233834303531
-0.04901815778268174 4.754023524779322 -0.02453577401751894
-0.07351178322284405 4.7123610539194996 -0.09304562599332541
-0.30603439968918056 4.533867506500239 -0.16671224767289414
-0.27044475 4.57392775 -0.1260435
-0.5791566328703703 4.351014783101852 -0.3083048625
-0.9674935481977734 4.10934736691298 -0.5167376169058184
-1.067963070674241 4.052929122865069 -0.6039206833146853
-1.0372973162794519 4.081914292083953 -0.5715846978165303
-1.2771420714285715 3.9526119499999997 -0.7896113142857143
-1.3717739324371019 3.9202249263956372 -0.8782784338570349
-1.4881380914841142 3.8823559551284332 -0.9835885923229113
-1.4544005107638887 3.8919259654706795 -0.9537565510802469
-1.539256853809524 3.872155554404762 -1.0321679566666668
-1.7104094812010455 3.836825794361772 -1.192495446113121
0.02368529365079365 5.0218794920634915 0.047405993055555554
0.08645481692642643 4.849626339625603 0.22441709052865744
0.145613 4.67642 0.4684685
0.18457647916666667 4.571257520833333 0.6527237916666666
0.19297851200764257 4.554302599771642 0.72555744188786
0.19533803547808012 4.511207782968395 0.8134570789930555
0.203787250635159 4.470642011159412 0.8836808861455683
0.1984612083333333 4.498538208333333 0.8708848333333333
0.2119364363260358 4.425334684335104 0.9857985577241797
0.24107466666666666 4.320234666666666 1.1807573333333332
0.27535871042680776 4.183580913741328 1.4634561045138155
0.2196651115886972 4.042847190763804 1.8168472321093467
0.1637244488095238 3.981273153769841 1.9978505890873017
0.017053620238095236 5.295950186621314 -0.028581757511337867
0.12383617857142856 5.057765407142856 -0.34733623809523806
0.4132560506875 4.7503730406354165 -0.7258440951666667
0.6344918029218632 4.561121745474694 -0.9987740058578988
0.7645605822876372 4.441119134487545 -1.1834769642913274
0.7187509916666666 4.481217958333334 -1.1130773166666668
0.8042662999999999 4.399082064467593 -1.243032616435185
0.8773044335666157 4.350422638591904 -1.3355806702411217
0.9529527257842177 4.295447000456368 -1.4272466295498714
0.9109773565079365 4.319434859047619 -1.3802132158730158
0.9885422500000001 4.2737677 -1.46530065
1.1630212730367615 4.166855956988867 -1.6677251646105322
1.1844323638117282 4.152569437114197 -1.6928431417824075
-0.14062249599535329 5.5276488328858475 0.05469003653120082
-0.1876856666666667 5.492299916666667 0.09063858333333333
-0.6294872914210902 5.198793551241426 0.25325553828388303
-0.7120226010847578 5.178477477802038 0.2690992705709072
-0.8179190333333334 5.13146338095238 0.28531373015873013
-1.1506161073241528 4.976267099871664 0.34359962449453446
-1.231135438790275 4.933545432848498 0.3679550104032519
-1.3049458030229641 4.893907746676742 0.38765260268824464
-1.962695583460732 4.636563126540609 0.327848237984065
0.259471405627992 5.752188128963005 0.07146319166246745
0.7848803559212965 5.432067777569444 0.29052315676851853
0.8694788644011491 5.382891940042769 0.3198134884986711
0.7161140958333334 5.462485305555554 0.24941842499999994
1.0473887499999996 5.294450535714286 0.3749456785714285
1.1832024802590937 5.220418501890956 0.41922347061491394
1.5409844930700232 5.052361397337963 0.5395541372974537
1.7182474194444446 4.989317758333333 0.62604874375
1.936925691534932 4.926395925006105 0.7341282765034531
1.992201711031302 4.910905347772266 0.7624034254839881
2.034312532789273 4.898549359392536 0.7840466355059597
-0.7241230548562747 5.26600185639943 -1.2290538168376737
-0.6943641875 5.2984799375 -1.2009627291666665
-0.824514373264509 5.180926419259041 -1.3098261342435642
-0.7807738617724869 5.220780820908918 -1.275467004015495
-1.19845074603667 4.842196755907484 -1.740894189495761
-1.2268839803834704 4.814127395971171 -1.782793765461731
-0.6758502965797428 5.3207465985134785 1.840063137270093
-0.6872928616402116 5.295166761728394 1.906131530643739
-0.7037110062626188 5.246569099257479 2.028305268415206
0.7152587301298701 6.2505833140489715 -0.4893458416125541
0.7381385592857144 6.245018098616071 -0.49394303321428573
1.0339409155505952 6.0657788203125 -0.7066000982142857
1.155486 5.995809 -0.789876
-0.19499861111111108 6.930332958333333 -0.061568874999999995
-0.7718886666666666 6.575976666666667 -0.11287533333333333
-0.8076277333333333 6.553361458333333 -0.14397646666666666
-0.7588295 6.5500810000000005 -0.111858
-0.9756254647949734 6.459470722084572 -0.15954416120494377
-1.4599175179182982 6.188247771385505 -0.15507884888900156
-2.049367822318668 5.883872406524869 -0.07511687340666137
0.46898 6.704223 0.696482
0.6770544589515208 6.4304899035943235 1.1511235262874546
0.6666256254960317 6.459056660218253 1.1069811780753969
0.7559860664278734 6.339800441170421 1.3167069582213409
0.7147171897354498 6.387410032486772 1.2248061853968255
0.7323221875 6.354026999999999 1.28243725
0.9691720086419754 6.144023931790123 1.6452572799382716
1.075581375 6.068620083333333 1.771777875
-0.08643589774329877 6.787985038702922 -1.5886369615318552
-0.08059654987164905 6.831553362144163 -1.4825343983853947
-0.07862897072522386 6.810447785588846 -1.511157651644854
-0.0932312148148148 6.7606048943116175 -1.6765473925242507
-0.17817704999999998 6.610042449999999 -2.1633938333333336
-0.21095166666666665 6.579242166666666 -2.308236
-0.20344349436213993 6.5899132312757205 -2.2616289309938273
-0.04440581404761905 7.7050721965079365 0.020344709444444446
-0.200356 7.558791 0.180449
-0.6207795445214839 7.326466759988588 0.553694961272821
-0.6324092882968 7.3050285850025185 0.5494974544280674
-0.7056838339756946 7.283669698078704 0.5975364171238426
-1.9546787693091083 7.02978802434333 1.0884044159513975
0.10391146990341474 7.931565964802421 -0.02165101865057221
0.264216291627452 7.852432627064293 -0.037299981777768526
0.29850555437788273 7.812532732211562 -0.03505504955977988
0.6762625 7.676292 -0.0483355
0.782304250755415 7.63418584711962 -0.08231690745272936
0.8653170460913386 7.617154100706501 -0.10160988899739583
0.9387831268063636 7.60091680815135 -0.1234991163809541
1.0000840287774615 7.584383949614413 -0.12400901807757195
1.043896140952381 7.558941539464286 -0.14720935476190475
1.197708322199134 7.513391283630592 -0.17808093073015874
1.6276795460868607 7.397701730583113 -0.27462375305886244
-0.16880077083333328 8.117659270833332 -0.15798181249999999
-0.7900224761764334 7.6796614089923185 -0.691284660330885
-1.1064962153811175 7.49594480664263 -0.8773262708502344
-1.6824637222222223 7.195071666666667 -1.1264156111111112
-0.0295898955023998 8.378602433906563 0.13910056708872723
-0.03082026111111111 8.325222685 0.21387508333333333
0.4731751881966589 7.77913548264439 1.3842821660815483
0.5001894127747253 7.756310395998169 1.4279137897435898
-0.046064735438706594 8.681586061142491 -0.08370125504153965
0.053124114583333326 8.55747063402778 -0.19853084930555553
0.3570817728722464 8.37518708582041 -0.4954227876663098
0.47177410795165653 8.300132077533936 -0.5693125905977234
0.5198210928842611 8.28730511234667 -0.5847713739868596
0.6400528790602265 8.21984745596501 -0.6690656089478328
0.7221098149583334 8.168402863916665 -0.7263282435520833
0.8495962314992038 8.096699596209849 -0.8311579416972652
0.9521796928738784 8.03882929532596 -0.9144289228220136
-0.3883459321617535 8.754089604473734 0.05538633395691609
-0.8869587223104284 8.510307212193714 0.21570187573562757
-0.8017086492483211 8.547284260335585 0.17942441804029308
-0.9625518820684524 8.491642991728671 0.22600179562251985
-1.3647627046103397 8.330135385373264 0.3883547971884645
-1.5261391031525808 8.2593370751676 0.4390115279366644
-1.4635538449559082 8.283791666444948 0.41982367681531874
-1.6372678650559414 8.218024457242064 0.48584991042080017
-2.0039056648989897 8.123163291630592 0.612382317958153
-1.8667016666666667 8.155854999999999 0.5688389166666666
-2.2109062209645147 8.084828614115725 0.6844283459743538
-2.250822997395833 8.077574026909723 0.6978193940972222
0.022512738684877236 9.100246103594523 -0.0032269057933358523
0.18298861779212494 9.012647335796698 0.08439670557663001
0.3636826064814815 8.915026402777777 0.20442983333333334
0.5589001987942875 8.818283932408843 0.33964137517935034
0.5892657276041666 8.809685338020833 0.35755735260416666
0.5340509427350427 8.834108094017093 0.32278626111111114
0.778759677991651 8.755223083037002 0.47884685131931554
0.9940584617746913 8.6826666401929 0.6039775662307099
1.0468115925347221 8.665469506336805 0.6355177992621528
1.2667525941358024 8.609753581411464 0.7572023441929584
1.4581488414424002 8.586269215610399 0.8851009725900159
1.4146902 8.590457009523808 0.8543198095238096
1.5189954708092614 8.579184637171172 0.9277644253814765
1.5995190238095236 8.573071063492064 0.9828161309523811
-0.15876078931558116 9.17581395287646 -0.42074795630453715
-0.16546497530864196 9.16760430617284 -0.4787358135802469
-0.32423607794642856 8.967363075074402 -0.8585956489756944
-0.4986395519450456 8.813268144206951 -1.1739486392180734
-0.5480231207529579 8.769798675511723 -1.2673594251026128
-0.689743826078155 8.676512168889955 -1.5115915048705308
-0.9582446833254064 8.553065927153437 -2.004710247528261
-0.9340498050000001 8.563196445 -1.95937247
-0.12074257407407407 9.502238559259258 0.048661318518518515
-0.06537515320897051 9.525702694837856 -0.025237284317605475
-0.1293810554289352 9.465235718377663 0.07763186488472222
-0.666301260819799 8.954718651003203 1.6231617799737965
-0.7354524494367234 8.927060793902545 1.726004640279189
-0.7733682610416667 8.911596894375 1.783510261111111
-0.766908 8.914557 1.773784
0.028197286647992526 9.676760533613443 -0.10501230588235294
0.11165600049987445 9.642083462270246 -0.12416021353755448
0.26721468125 9.589887121875 -0.16690038437500002
-0.3019950189898378 9.84519005889446 -0.1237635373919896
-0.301829099352403 9.836994058059137 -0.1510982931864528
-0.5315999171075837 9.744355053130512 -0.2071686602733686
-0.5632133009259259 9.726415398148147 -0.20532460648148146
-0.8785819500000001 9.612600284027778 -0.3013857368055555
-1.4538897519417162 9.435390748656406 -0.4603103333813374
-1.8004029820901166 9.363058600887529 -0.5692861927413077
0.16155112264110227 9.99516176397726 0.3484255857741728
0.2777738047993582 9.886828312037544 0.7383757044279726
0.41167747441997926 9.79234222970958 1.0797491973781463
0.4666447932553129 9.757800143629524 1.2246393706518124
0.5659653798266316 9.713368940863564 1.5470264166448136
-0.1214266 10.339092200000001 -0.1482074
-0.045412816423160175 10.265279485795455 -0.2514355219155844
0.022174150109053496 10.212904309625515 -0.3525263105946502
0.4661473791139068 9.904390366001335 -1.4131424121345655
0.46638235454545457 9.897350672727272 -1.4259396136363638
0.5783175008877762 9.860947199191969 -1.8437012478423909
-0.6473915216364322 10.212269842838245 0.5763874294595616
-0.6670319638428415 10.202351942621315 0.6239149860187615
0.285200419937861 10.556755172722156 -1.268881536989795E-4
0.5262080388383317 10.518764891586066 0.09672438265419876
0.5455487718631897 11.28839953605442 0.7205653146990741
0.5840794331166991 11.298029857239028 0.816320815016855
-0.14240375 11.584893000000001 -0.34883025
-0.016334704684744267 11.468464606332672 -1.2319613347387568
-0.33339015501562497 11.644696565578124 0.31048548291406247
-0.4132059328125001 11.598896715625003 0.5822235828125001
-0.48535580811287476 11.579621472680776 0.818879262504409
-0.5020459229166666 11.581021797916666 0.8679543208333333
0.1349257231746032 11.814750425396827 -0.14655379428571427
0.6053860921875001 11.766354693750001 -0.1120421046875
-0.3001627055555556 11.974171551111112 -0.21503154666666668
-1.0380300930555557 11.878783318055557 -0.7878207041666667
-0.1363904265681742 12.106306535136001 -0.010548573635911525
-0.08889603884991498 12.093755076934523 0.0952555556122449
-0.10986233333333331 12.099137 0.045016
-0.01810259169238683 12.227344772633744 -0.3140854293981481
-0.535046502970679 12.318209896082497 0.181328639223251
0.02969332671440972 12.731857407099973 -0.21710267831307867
0.22218585937500002 12.7324960234375 -0.23628341406249997
-0.7835807806802983 12.79173306731996 0.01761298358281893
-0.15751021296296297 12.88972942026749 -0.08791948096707819
-0.11216769162962961 12.884368751851852 -0.0032407369259259255
-0.2677750820731352 13.022839033809246 -0.20335154760586635
-0.2322752673611111 2.858838993055555 -1.5645302690972223
0.466859304782519 4.333300548325278 0.8806976104793205
0.4785321576666666 4.323470293333333 0.9038439103333333
0.3078021721590909 4.701892274857954 -1.0878140553543245
0.2908221277116402 4.746515879662698 -0.9830633944444445
-0.6914385486137903 5.082919245444047 0.4223272760001393
-0.8164262939814814 4.983350673611111 0.524080847222222
-0.8261475454166667 4.974125473948413 0.536911109920635
-0.9178902038664641 4.890583481391059 0.6156761268265335
-0.981253913456883 4.843431975807663 0.6749007732490192
-1.0025333484020094 4.813047263227847 0.7047925364100662
-1.3098421700634606 4.541399810353521 0.9799341583805746
-1.4649898623084139 4.44567229171235 1.069972647166807
-1.3563927086856733 4.511067858451829 1.0169096645762472
-0.7111248960455248 5.1409949935571 -1.609237
-0.8995978393825955 4.8803186139262635 -2.1765033846932873
-0.12102001666666667 5.967582387500001 0.7663667416666666
-0.11362591500000002 5.856045425 1.0763431066666669
-0.09193055083333333 5.7661157095833335 1.2936714491666668
0.06411303331128748 5.431565231856261 2.459480952491181
-0.9594495412202382 5.25584356279762 2.1250351910714285
-1.628564716875 6.166703508333335 -0.36435397249999996
-1.7907392654440661 6.092374507267258 -0.4264347695234946
0.664539 6.741826 0.65915375
0.7007472152777777 6.726529921875 0.6707534470486111
0.7995032496101733 6.669705217791355 0.7345252467050194
1.4971360100000002 6.334000476666667 1.2358895933333334
2.0425336874999998 6.1766568125 1.4578695625
0.9779918669515351 6.0661214196724025 2.0533406937087553
0.10447857082705168 7.021824368137662 -0.8355385803925789
0.14550588333333334 6.9589719500000005 -0.9354080249999998
0.15972216666666667 6.962984333333333 -0.9497518333333332
0.21613892407121627 6.874115078507296 -1.0831601119253234
0.24109551964285708 6.847573703902116 -1.1439248476410935
0.4383249629886831 6.5489052972942385 -1.7583497363528806
0.5183597065972221 6.477139104513888 -1.9490693210069443
0.7225957784435626 6.365884574757495 -2.4160025737544086
-0.4864334518686868 7.313066133333334 0.5683608588989899
-0.5482099695031767 7.259706089148722 0.6431872034695799
-0.6248851312499999 7.179880987500001 0.79511399375
-0.9657821512827933 6.786227259204146 1.488693200854966
-1.3727258541666665 6.57964378452381 1.9257310809523809
-1.4143601875 6.559369234375 1.9693856484375003
-1.2269107136459998 7.023917435428528 1.0697527897680432
-1.376050925867339 6.936525453757073 1.2427561196128194
0.8661153591467957 7.550128615304037 0.09074142716583018
0.9487351839166668 7.507506978833334 0.12646748183333334
-1.2654473333333334 7.405245333333333 -1.2144633333333332
-1.265412 7.402064 -1.209508
-1.7741598935833331 7.192686827666666 -1.7138527055000001
0.027312499999999997 8.06360996875 0.9113125468750001
0.02819909511205915 8.039042414084737 1.0650765681335017
0.024388468090277778 8.01107198640278 1.142530911652778
0.02890086861111111 7.977360237361111 1.2549584840277779
0.016147863643996174 7.867025193009627 1.7326738097247942
0.02052154071701389 7.887333916642362 1.6425872319392363
0.2803731242947255 8.41952450882234 -0.44017648279861105
0.3909327437316667 8.345351255755416 -0.6630524089375001
0.414878 8.3165981 -0.6894096000000001
0.6187834445905968 8.192175735143849 -1.0805969348878612
0.5894300284391535 8.223108287312611 -1.0110698245701057
0.8476081862130059 8.056093339188676 -1.5166976312959612
1.2455574485596705 7.985901102880659 -1.9708364814814816
-0.1964226208641975 8.842993724074073 -1.7494750740740739
-0.21582413325 8.846427090125003 -1.9134185209166668
0.6802888593749999 9.810958646412036 -1.3507569021990742
0.7315099973958334 9.784898973958335 -1.4310729557291668
0.7654294407500001 9.760916514500002 -1.4859895280833335
-0.9377470497685185 10.234063625000001 0.5807780358796295
-1.003085 10.215572 0.638688
-1.2787034161522632 10.162551139917696 0.8156408539094648
-1.1909104174574783 10.179733992501486 0.7690682877568675
-1.3657920312499998 10.17940865625 0.9677998203125
1.3549231944444442 10.457100874999998 0.25968766666666665
1.4517309134475218 10.45294222137863 0.29349725477135297
1.4943439953703705 10.45025160648148 0.30867074537037037
-0.17560993485941043 10.864998660714477 0.8453002166477702
0.16536125000000002 11.101515343749998 -0.29948096874999997
0.39535348177083335 11.0801830359375 -0.3598119328125
0.42218293923611105 11.075858119791665 -0.36072444270833326
1.2187174436969397 11.117766553868146 -0.37298523285188195
1.182303677812071 10.976595567095334 -0.7128096825274348
0.7749255714003251 10.930368969939789 -0.809214899327257
-1.2153147325000002 11.050296829166667 0.07268517083333334
-1.3825060347222222 11.009984701388888 0.09827839583333332
0.31475058333333333 11.394420445833333 0.20138117638888892
0.22630583796296294 11.348869827160492 -1.3950142824074074
-0.14627905491539903 0.2170010412388393 -0.18671665356302358
-0.04937228544456845 0.22968399909241694 -0.2194515631975446
0.03894873948929398 0.2256180227900752 -0.22383416094473377
-0.1499261160224722 0.13119373835998877 -0.18846537720689946
-0.18978982438271602 0.20732028302469135 0.11709543395061728
-0.21607331004884156 0.1306652799133598 0.08535562690001203
-0.18727224999999997 0.14235008333333332 0.12884891666666665
0.15004984375000005 0.296770759375 0.178665925
0.17201013249805755 0.21560399406565658 0.1514234520639083
-0.06127665521030619 0.21413211453861533 0.2257434120219118
0.005240656125992062 0.1294609210813492 0.2281046467261905
0.2548234566358024 0.1383796616126543 -0.01438271300154321
0.2377826015914352 0.03576988133101851 -0.06291605572337962
-0.1962893888888889 0.4577721111111111 -0.06931994444444445
-0.06172101736111111 0.7301726750578702 -0.18614156047453703
-0.11079036241319444 0.815457419704861 -0.17021646672453702
-0.13475313305555556 0.5535882268055555 0.16042146930555556
-0.1786927325 0.689763319375 0.0758963525
0.10906208333333332 0.8281553333333334 0.1698595
-0.11731999061673279 0.9805614401455026 -0.15209198776455024
0.02844776597222222 1.0216234290426585 0.17082025948247354
-0.109342 1.127568 -0.151525
0.012684630175925925 1.2959035093518518 0.16369842778703705
0.015234000000000001 1.3452665 0.162868
0.10234749459876542 1.3699205316358025 0.15108516589506174
0.100062 1.4238355 0.15004425
-0.10753758203125 1.5047474453125 -0.14753737890625
-0.07456156119791667 1.5539288671875002 -0.15710794791666666
-0.16169318875000002 1.6236642125000005 -0.04077684979166667
-0.1375444703809524 1.5239587035396824 -0.08935681414285714
0.13047160416666664 1.5498208333333334 0.09389447916666666
0.13384200000000002 1.608492 0.0847525
0.14499299999999998 1.6041055000000002 -0.0686185
0.007651037037037037 1.8457873749999998 -0.15915835185185181
