ply
format ascii 1.0
comment VCGLIB generated
element vertex 821
property float x
property float y
property float z
element face 0
property list uchar int vertex_indices
end_header
0.23877242399081686 5.180159691637313 -0.07603949550014617
0.1707798219214091 5.311313593897515 -0.28734921215356407
-0.02709563719510444 5.775988155010868 -0.33535174363893716
0.005225827682593252 5.930678444010072 -0.22399757216719723
0.04480713263453102 5.685074979429495 -0.3344385360152402
-0.15991223525788997 5.963362203538701 0.1308628760400732
-0.24619869047116474 5.776300115427019 0.1046981104572003
-0.2690150822477587 5.807915358681225 0.08198994277770306
-0.1784075478377216 5.749572618524643 0.26864749843861346
-0.18761387303449686 5.681008329401656 0.08838934375189153
0.20855452536115934 5.932118997500904 0.1437719883498164
0.17835794519480966 5.871309169052644 0.22364493388501427
-0.029394054265234518 5.682800401805804 0.29260366347215727
0.26168256501143095 5.745690660351245 -0.20235303709074065
0.19508610749374714 5.743611632911366 -0.005965942167911591
0.26547812855035613 5.933128909031178 0.13971010242170354
-0.08847121565207439 12.020614412713158 -0.11797814144332901
-0.19039594538587212 11.860046683932174 0.03937538282812616
-0.029058110372596667 11.906718462538231 -0.00440021232822576
0.07316556694312813 11.910103536133738 -0.04237469270225867
-0.1365456862419508 12.353869996638483 -0.111906244056321
0.02680731141903988 12.350566687609584 0.07646949545331297
-0.07053230179130313 12.343681713066381 -8.489365242084768E-4
-0.15597298378410723 13.716899026241641 -0.1396266117650285
-0.07627205585619938 13.795155273068652 -0.026144732329532093
0.006643875583074067 13.738757558324648 -0.038624831619417516
0.018234575453503973 13.848954204369374 -0.06272891658155105
-0.1296452331084923 14.114865840147942 -0.1314761178557249
-0.09725198837343396 14.39931675559862 -0.05735458227107114
0.008098661494391007 14.178126755790082 -0.135738568755648
-0.03744195222700774 14.641007526140529 -0.017852403062769015
-0.070060080171935 14.874144639790309 -0.08603396840005527
-0.07295237798394469 14.995032905562017 -0.12119509000749182
0.007847938482042512 14.877882683619907 -0.13463826626418707
0.3532019011463845 6.291736235869702 -0.3964119652967971
-0.053626700543798304 6.855185564509634 0.021154107414342486
-0.3885732255536283 6.729232488136995 0.048229611690264386
-0.46982947046749424 6.663240629521198 0.055302334840359436
-0.6747413282562997 6.5311414475128045 0.062238150813800214
-0.7476753620284731 6.627554871408623 0.06184558813239942
-0.8587350360854915 6.584863013132499 0.055425065429594855
-1.1534894957856685 6.644387832535026 0.04427214763998823
-1.5922948025809638 6.641449683830789 0.17420009589348162
-1.8013512599831512 6.6148818495581505 0.21346427178032845
0.0972179778708849 7.0944255878530385 0.021640959334921515
0.31538316794326965 7.069861259885527 0.26891927633280066
0.40816413746010405 7.091089586520964 0.28191098885605786
0.6777669284881448 7.111034374806501 0.4835918682635407
0.7887787785311899 6.983311678950896 0.6244057387504256
0.9113667978130975 7.034203642883764 0.6658084517797296
0.889854194880445 7.039007999558713 0.7628077463422196
1.1202730941766843 7.018819091388111 0.9019175839447224
1.2741434086378882 7.010370398439522 1.0004156700482314
1.5996801911012848 7.083512330671851 1.2135936749657632
1.6722123727307572 7.127061659375227 1.2858196077693618
2.010794030986082 7.266593285280028 1.583175144651427
2.3432387948160325 7.376816285718515 1.8146531103195678
0.05543835408988314 7.495395905254363 -0.06306539700910091
-0.012952880017125995 7.595864097791387 -0.3279599817473472
-0.060683205436215894 7.466483214862607 -0.3394837962422887
-0.14430117193863137 7.390114830814387 -0.5392081742687949
-0.13126459239286092 7.327788245307106 -0.7320722872758764
-0.057501747347629945 7.3947553153408485 -1.0936665140487092
-0.19239789649192582 7.41637552215484 -1.0792529783870886
-0.19859078411674963 7.413817030879706 -1.2061700291011501
-0.29131433467723444 7.445834412403386 -1.6042094524283474
-0.2577464934916805 7.474462323962526 -1.7762260399752041
-0.3731075218592289 7.586386971187478 -1.9616364448225956
-0.30405800567993124 7.477783212683135 -1.9863036975167636
-0.40608729508537866 7.562240359806492 -2.2883469270425154
-0.39250846117376703 7.594142683286172 -2.594125911189321
-0.42231918426865594 7.797506364629548 -2.7958872635727383
-0.5099640132036884 7.865183696285357 -3.080806494218567
-0.6353077341800321 7.814399919684062 -3.368101668805893
-0.1383351622267135 7.914333074822043 0.17992893875653831
-0.30296082473104635 7.817218557400459 0.28549598056552095
-0.49532965760305175 7.775075113731826 0.9263210506034663
-0.7128564351580476 7.762636423994762 1.055394581045513
-0.7425357897521773 7.798328710910813 1.146460666832149
-0.67075282052933 7.7813133254516 1.1380326511278016
-0.8882745741385 7.8203105504436845 1.3014309980204684
-0.9958079016845133 7.872787340896576 1.4616888364803278
-1.0166257287691158 7.98770232467061 1.6861056597179793
-1.1038247079571442 7.87124813002347 1.7529940105435955
-1.4121366426393887 7.974692662626327 2.0824479680325703
-1.447312387396927 8.042765171786728 2.2089219666973263
-1.611757232119807 8.109026763761097 2.4973377189881423
-1.7053999981075803 8.177955163192998 2.5269701589744944
-1.8157980112886483 8.25910206848442 2.668326524948952
-2.052424743427876 8.314448395744606 3.086862398201432
1.8429022424782895 8.302102984630787 -0.49460832469773547
2.415747536271868 8.365453796704543 -0.7222392542405176
2.440184661265289 8.347007080856086 -0.6735351464779004
2.6128582181715228 8.469827017857513 -0.7024735662664088
2.8977573511795134 8.53649983754205 -0.7366296146384321
2.8680324259214705 8.438166727746852 -0.7742094453953996
3.2655208526323434 8.744637921451803 -0.8766304862779273
3.346650968884816 8.763487209320104 -0.8357815418443535
3.657410625772823 8.891315501641547 -1.007719685587246
-1.9674069986065958 8.779849289582899 -1.1134711156573314
-2.50085010091332 8.944158505248135 -1.2938898570218291
-3.054544280241828 9.206829802736404 -1.4996526597128492
-3.323237549466247 9.309886330655562 -1.7209605028345498
-3.472651351052099 9.460813230491329 -1.7277540043477215
0.75773335176174 9.085727484049016 1.8487739764456044
0.7156135588997842 9.13124132240295 2.2534927014789568
0.9985649434257274 9.358793720242197 2.763825475587653
1.0760483392422282 9.47981191554573 3.108072355965608
1.2648637799869733 9.6232972410212 3.3838010403659227
1.2621579729610166 9.671338351472295 3.492310561317094
1.285290412342781 9.641161945994844 3.4972757135811925
1.3569855446207637 9.883808035011182 3.910864935360095
1.3929979536315962 9.83368886968485 3.855565037226398
0.8186710545777116 9.6002500704268 -2.0120460881829034
1.1399237465823173 9.840544786535606 -2.549341518406303
1.1749365657979993 10.005863372443836 -2.7461471548345626
1.2791223568234271 10.150359784705465 -2.8743136220527328
1.3232982088286394 10.221176526661171 -3.055516811940905
1.2288096795465702 10.127365340829275 -3.0986243668207236
1.3857011606674228 10.324099111644387 -3.2200984352151494
1.2997573935117883 10.204440690485775 -3.1919111555015984
1.4496722341841601 10.32925598372804 -3.4278246325099087
1.5906218975191708 10.516353247675806 -3.6776497063223816
-1.0165116528187417 9.91341826302624 0.543415096171324
-1.174346373673822 9.883593264736012 0.559018515451035
-1.7078915047729972 10.084189944941436 0.7367526807447984
-2.0864883757684574 10.12020686127712 1.0158089617633113
-2.2738241227441747 10.248190716175936 1.0248729480582635
-2.4732936162437964 10.323899815012007 1.094879470754554
-2.904052934873952 10.6655464192278 1.3702578349437997
-3.085800716429072 10.838093779653997 1.4688208551152795
-3.2558049089337233 10.858791052879017 1.4965931580835108
-3.44257322077978 10.99322499273017 1.6099947384680318
-3.382317959617364 10.99947370312926 1.5721567651460897
1.053526437299981 10.337565148678282 0.14024378040459218
1.563368094267822 10.703106775756655 0.5082990087424346
1.871375196160641 10.68817633128202 0.5060769888698956
1.886892291737626 10.671649339794609 0.5719524783447794
2.163050266677911 10.826842713379675 0.7240427670163351
2.3523196378601283 10.998935785723388 0.7726496969337039
2.5631839719792047 11.081886083916828 0.8592319755235001
2.647706206973412 11.204282655238826 0.9110388168793265
2.792227257356233 11.332635364279707 0.9779058345607432
3.0690525213236532 11.465500637771326 1.0437290889043147
3.1308153803331917 11.537380896987807 1.0803029705159994
3.1529509976413936 11.514247760880602 1.039692147931747
-0.1410811442999712 10.49702088275681 -0.22016621484793594
-0.6698190368026651 10.657357991779255 -1.041050582067448
-0.9638549374090113 10.824342762427248 -1.5167999505292187
-1.0511492169026817 11.086301541972848 -1.8221170247583454
-1.1754378519425734 11.128195897977475 -1.9749036803246751
-1.370066901409086 11.134425584606065 -2.295156207913045
-1.2616234831293152 11.19396626518592 -2.165810148937026
-1.2539519632020582 11.265855575260726 -2.2941001063210797
-1.4726669421911636 11.509835115093685 -2.596535724367803
-1.5637359905099981 11.63427092698306 -2.7295630740660286
-1.7445110936400892 11.630210725823682 -2.864593274902953
-1.7525486628882005 11.760942356795033 -2.9532874233042654
0.020014450846153588 10.918291017197372 0.014287554194885872
0.011770918337601575 10.832798936652479 0.03796527190554818
-0.08532068827050489 10.949583092778703 0.19516026982352128
-0.0910403388095915 10.900354744943447 0.38489480149822974
-0.2672807295301139 11.234571521933894 0.9625667927912034
-0.21899579618141976 11.095941739149106 0.9308208718465317
-0.3560950618035663 11.229846196532153 1.2455879778188184
-0.31410399756104623 11.287752291350467 1.4346654632749534
-0.3981472195219643 11.463720374510295 1.7665196356910364
-0.41573236838629735 11.672793194205202 1.8596174575493831
-0.4519129244490836 11.8233878999199 2.1646929497123377
-0.4855459394070463 11.78904941034069 2.2391669470160505
-0.5220874362897705 11.949514032194555 2.3179978377607275
-0.4877252384510338 12.116983480277074 2.571090325237467
-0.49188733079432007 12.004600994812986 2.4608021773103568
-0.5591088443045977 12.343814777454178 2.753882579243577
-0.6250322824742716 12.412720582006292 2.9681075365559413
-0.08187567699262 11.270314589760016 -0.11579854922247845
0.22653810440122174 11.379412965217615 -0.241020804323424
0.540251946363589 11.55465013896955 -0.46337896740614526
0.6129107506995513 11.438159953140728 -0.4207474866009631
0.8569666125362086 11.64248999564154 -0.6194626931502485
1.04747536124372 11.72481770080236 -0.6761147370891389
1.0108749124077654 11.685732163850753 -0.6995697749423079
1.2808309855679938 11.899373857426426 -0.8538290473362168
1.2407343098286923 11.977448145990405 -1.026689632890201
1.5246761568275393 12.071525122943498 -1.0143982859742489
1.615277394644181 12.18860544584013 -1.151476845364237
1.8291900277651771 12.396406354104021 -1.2335394413712748
1.9668170206416111 12.6032372608422 -1.3321743272330486
2.0131244997450506 12.491654317291225 -1.3573095603237555
2.10950566079775 12.618762850141838 -1.4543955396948751
2.349932004062949 12.97001379794901 -1.5807741599225866
2.388816162866598 12.98662243668636 -1.6338366850810726
-0.24356929338509004 11.737267239060849 -0.14063048692117044
-0.3510403486496225 11.832451547080932 -0.0764754607865609
-1.074845006157561 12.142337774359484 -0.10489885711997492
-1.2782472872712496 12.128227521284293 -0.2461262351702683
-1.3569480981462168 12.352659704586134 -0.19195470808611445
-1.5596081672210675 12.316839849671668 -0.09508807855174507
-1.6524676616251877 12.449054663430045 -0.10923568971358022
-1.7834820918717247 12.556009466698907 -0.2233977059724925
-1.903633698182118 12.710337562221506 -0.12688257928856508
-2.1255044368213456 12.96775284023952 -0.2852855791587948
-2.2131391563756275 13.098127688045055 -0.19625372756477463
-2.2821934620096704 13.35199906166585 -0.2996375686796872
-2.457255924198602 13.420436037818172 -0.33107005000926115
-2.5208334553478156 13.506838887791002 -0.3671873877529275
-2.776276061699762 13.722330507716627 -0.3092543124982168
-0.04371315929160305 12.00322853677982 -0.0060680167367602265
0.027934142922944674 12.119528457037688 0.1585684128683033
0.157881259025582 12.166995834687558 0.24787677391476784
0.19379833291301685 12.327331955002448 0.4906498515632525
0.3763789223252562 12.171928698224356 0.30190031105133086
0.36551374867118736 12.357385665867774 0.464813358731827
0.3724907484049847 12.475538861934078 0.6150427341978819
0.6345017272634543 12.486208699331973 0.786695276952527
0.7695321535798333 12.6736251704602 0.8998434114181698
0.8832641196165952 12.80090022785213 1.025012304149242
0.8674744660533885 12.929647300208204 1.1102273089578665
1.0477804286471568 12.861087616462383 1.1318822259976016
1.0254779152582805 13.067555901075862 1.2466619334525908
1.0670506270609212 13.156250143352807 1.2700991553787169
1.096781583733543 13.128275192231795 1.2562036545393442
1.2784334316359047 13.352629920319533 1.43540968743358
1.3245405677652005 13.408652713619526 1.4745267825023418
1.3465405284358523 13.40605007292049 1.6185808606673704
1.3208755943321862 13.681989946297172 1.7530653049217513
1.5884063039802716 14.037500120246046 1.8771273140647144
-0.0021111551699239013 12.444084015700343 -0.05918162139662548
-0.06087216473085759 12.37193517091552 -0.10480428999448299
-0.0160390594128626 12.497305752520527 -0.2183986070284264
-0.08245347345261206 12.587902759167218 -0.3475164877413855
-0.036331404667452306 12.818868820778482 -0.5448292713930043
0.10115559766010795 12.672870468518369 -0.6684127261390874
0.1603723134541828 12.919004666249581 -0.8772841190592814
0.06946520176906079 13.02175744787101 -1.1181642249158124
0.09265603850713722 13.416246131492466 -1.4066360247350824
0.19963168492212907 13.47048716781823 -1.5700295829228528
0.0982176473174847 13.560529766827855 -1.6035144732515971
0.15036855249278472 13.604064989277292 -1.737813266992751
0.1725965401219505 13.977429135795017 -1.956143923719908
0.08651404237909889 14.063414877327418 -2.0653023791401064
0.22135932697624028 14.410786660565538 -2.2891924324850206
0.18714460388043205 14.47681016868279 -2.370644347761564
-0.14757755590634225 12.794761222354795 -0.025739713055580454
-0.12361439542395125 12.822667037008703 0.07494618332143438
-0.34266779217365967 13.1462123746072 0.2649497544463914
-0.4306911070785188 13.166896972910735 0.43223312542730424
-0.4059747709849061 13.27743792528031 0.5261515812936706
-0.48122007884659856 13.39803088874832 0.5094653996946128
-0.5286655719672466 13.488168041564048 0.621602967737662
-0.6581054096135335 13.360856264850467 0.6792191321325918
-0.7217494531327243 13.739257323269419 0.7443520029941759
-0.8033377143244724 13.743421142005761 0.8558326755290263
-0.8717350508275501 13.936870781436628 0.8807894055133142
-0.9685737844009907 14.071476440523767 1.0842006444214023
-1.1994099598036247 14.333027265203519 1.1686156819679103
-1.215553109568865 14.522966849380348 1.251270042110197
-1.2212281753669103 14.533898278647163 1.2472537803021482
-0.04333395662624728 13.24739574491953 -0.11260603857287174
0.001144093486112341 13.191041145496227 -0.1929669829799967
0.20217643178445452 13.476442998976594 -0.08744796594380645
0.37500547400061124 13.420596516227162 -0.11566339873384177
0.44983456344815703 13.580214756128646 -0.059018408227841095
0.574549341858112 13.678020292411933 -0.02860310074600803
0.698509483162826 13.737142108817894 -0.0063599373130693165
0.6834779692496591 13.757308405338373 -0.03777947316346892
0.7798471377479314 13.812031369871221 -0.07272186096194014
1.1119031228067022 14.373130151575461 -0.06589285724006241
1.170927091583281 14.495632118972356 -0.053481696517189786
-0.03198300902693005 13.591314725241068 -0.14212647312411844
-0.15563005781543232 13.803488382166535 -0.12415061978568909
-0.19821188299434508 13.812269113862973 -0.1878352762851257
-0.4876864455352696 13.977844369790425 -0.4100718955612213
-0.4053010849272696 14.006105056188565 -0.36366913890258695
-0.5279812703818253 14.21849081385665 -0.6042359713407444
-0.6611745980011912 14.475744338740153 -0.5490412757871797
-0.149095586187953 13.966077803391922 0.008181549509998151
0.025941543039695786 14.180362918966331 0.10291337669849758
-0.12390674881582103 14.225849603895536 0.2902214203566936
0.04826305425074904 14.421112647619728 0.23008307443239212
-0.06222000529117504 14.383570640638357 0.32044528214437223
0.07386782299579842 14.731440445875371 0.4636792622310729
-0.09314757643694438 16.692174146960042 -0.09368110648167208
-0.2243970167598517 17.139661722149118 -0.12531880955317432
-0.08878698085671938 0.4267351239158482 -0.28115115805265084
0.04109303969626449 0.283467399190396 -0.28654087702931713
0.13443916211273452 0.14093542359300895 -0.42341545266545433
-0.22075810652204295 0.22852078876601403 0.3721211825258517
-0.28497850105604006 0.42759664542185305 0.22019991171335718
0.3045750080297111 0.14253821348776463 0.26173697261945245
0.1373231776842952 0.2843875643100837 0.2843214972378041
0.4350615949320237 0.34758101365718064 0.32564639201634227
0.2562919683315858 0.36949743025995146 -0.1653524154198876
0.29368281901895665 0.25582571278800775 -0.089132761170681
0.26255270101700373 0.3115281864669082 0.0052773675175275744
0.32992102044876204 0.45446233741731296 0.10932625161766077
0.3408304526746882 0.198729344655787 0.06846665536540031
-0.1483511003792565 0.8469333480963853 -0.34044508997304945
-0.0656362346404062 0.8741969370602369 -0.34014961024467355
0.046947389514778864 0.7072510209529904 -0.3898655403497349
-0.020052233989727625 0.7066678263911585 -0.3389658481711315
0.008101606525627384 0.8742960876380086 -0.36991318192950684
-0.19579282697480957 0.5100091508188118 0.35489666032982436
-0.28571917296011234 0.6516725715828182 0.3050663378722214
-0.17692003436879172 0.7043632663045302 0.18597120214784535
-0.2938059407122119 0.8711827873842654 0.3517040286008379
-0.20966505851311498 0.7613181669653307 0.3844002016006868
-0.2859891954426843 0.7061012258950707 0.09590045525423137
0.3343904455380845 0.7056972668289331 0.2457142892734841
0.36875475419867454 0.8197150446935046 0.3452086129844597
-0.015405804409066063 0.8176018862466511 0.33594655578624744
0.30692832211849924 0.7624749190684768 -0.1774828902116529
0.427586238664122 0.8746235972752544 0.0729404356850831
0.34839547926361425 0.6220597269234848 0.10357029279669552
-0.03770591392074528 1.1330788638474778 -0.26244045276558975
0.11788986355119815 1.221838154109596 -0.43027075256683944
-0.17439609821892546 1.1260225956352072 0.29975075588486405
-0.1601370569715526 1.2188077908669548 0.09512209756601044
-0.28088155714453306 1.3381444758995011 0.17150300687205153
-0.24739188995063827 1.278386894685761 0.04095882403024753
0.3400015712329147 0.9895574287673347 0.27969920847830465
0.2181343732958871 1.1054985075855448 0.28504912403436633
0.169888486732436 1.1631065732329322 0.2642025449609427
0.2250226302383049 1.2811494367737153 0.3182731954707295
0.060283833716515224 1.2506657697457626 0.30609536510721636
0.19258557573632312 1.365850537198075 -0.18185128935641207
0.35969428837534395 1.1636235664259031 0.05178837474569347
0.27785677307973977 1.2211319240747263 -0.08483727517303805
0.24124581865334532 1.3071806354191744 0.04608661066634642
0.3117881656442136 1.1042791106353815 0.06828972043049115
-0.08969666964905089 1.6569320654620945 -0.2959533381675011
0.16003895277761762 1.754361487111755 -0.36255767144030693
0.18926714768591416 1.4616750722411496 -0.3690966560572961
-0.20576157614735543 1.4308493536555675 0.34373266429053906
-0.2255499914042071 1.5597848891850008 0.19587006146754177
-0.298933321081842 1.7861180883137902 0.09725177465332543
-0.16514276222965116 1.7851674972971456 0.2502510049869155
-0.2303023688076507 1.7220931329825624 0.31146063793312245
0.3199215670233402 1.558034700413219 0.18854225667156901
0.37454747594536847 1.8271389695269014 0.24334746947034136
0.30911397629028126 1.7250604015636737 0.15498433795556482
0.0032263833204580847 1.820267791258763 0.37430056165201997
0.24506635829900067 1.8507935412875143 -0.07743523745790112
0.2411328697074983 1.6891846445823535 -0.11201251738957162
0.3141566965565583 1.6254098339274778 0.02254250984015625
0.32440286270205737 1.8196775388511497 0.015313578459790233
0.4007098359198674 1.499747285382538 0.16518010495215904
-0.36111716981358594 1.938636798121497 -0.22683173277660487
-0.33038986036766765 1.977163831618323 -0.20068332996756683
-0.20167494451031556 2.2579600039933805 -0.2644156757944126
-0.16681163156904807 2.164262269281733 -0.2690490391673318
-0.17185494982983093 2.318991632740986 -0.17411006277782318
-0.05406866016568162 2.320591842603923 -0.27999959481969
-0.16650296119025726 2.2886258809296804 0.16337075940936496
-0.3526784559100009 2.2896325146370318 -0.004613736719141507
-0.31946383859317357 2.132813742106786 -0.017727234684818724
-0.3041904625983162 2.350990699079117 -0.056933622855947136
0.2080996598456174 2.324951501720812 0.30490817445522755
0.19771393226202208 2.2302814123791626 0.27716090814633093
0.0250274203332463 2.3547251279900587 0.32319683186039777
-0.05797133810595281 2.0403228675746674 0.31668594024068014
-0.12313275994057155 2.1028926150557496 0.34647383806399823
0.22019058390772264 2.0416426475815785 -0.40533919250733597
0.1351369694833337 2.3519765730710778 -0.26431905999189925
0.2157082115385098 2.35315751810243 -0.18475295145212198
0.20606127316671563 2.2273956011845 -0.07003673959501061
-0.30896990969443744 2.5215641586325 -0.243005720554554
-0.28230371907905527 2.792377461157212 -0.18493440308995154
-0.2003382176586643 2.828852108021049 0.3213523139952928
-0.2767831063821585 2.7410999466648684 0.08241590615909278
-0.32927079802192905 2.631544421212657 0.06065771842107004
-0.2862154216567846 2.464190066828375 -0.10238463122514571
0.28488413536313784 2.8004297084506535 0.21816737617095283
0.15428408170729072 2.7449273742848344 0.2712639768667285
-0.09450637019752312 2.63222889325729 0.3013982957878723
-0.15443431692361279 2.7991902910816187 0.3046904843944533
-0.158623289051104 2.4106645287876507 0.3082845463135919
0.33295236378979903 2.691125594975623 -0.2960644214911765
0.21755514938480716 2.74402500791029 -0.2972179175997729
0.27936137778973735 2.7991850473426445 -0.05727394941345928
-0.17104664185250318 3.0976826147269922 -0.17477926615225822
-0.3124938377386171 3.125068726714497 -0.18663391102663446
-0.14698519040667402 3.2275747678054247 0.23791149802162767
-0.21910577656418195 3.1542003765207687 0.16741544962398858
-0.2889339612219969 3.0694093160125777 -0.14675005929186616
-0.3491122996656786 2.9890751413886534 -0.006427701598316994
-0.40278932174851173 2.9607537594411033 -0.20340522875461192
0.043038041147514305 3.1013782115453674 0.2748332763816848
-0.1019700595359444 2.9343958422574534 0.273189758865146
0.19875363112649236 2.9371822049143086 -0.3300613875353817
0.15553012740728356 3.0177736085348315 -0.30138657693343146
0.2852889708672712 3.0478827475609926 -0.27847015830281374
0.24296309480752631 3.2667283807559304 -0.35593741453781724
0.26218269490230456 3.1561610857939995 0.014023314114055739
-0.25534583285243806 3.51549423822572 -0.22781827792175127
-0.19267915148129655 3.578470143668473 -0.24889045628781867
-0.09438942678170083 3.639444673832865 -0.15819912529100016
-0.3226558909395939 3.575336229334974 -0.20277067457648457
0.013298019131455287 3.6719946366577023 -0.25070233637583794
-0.0663481383117994 3.5785222968693065 -0.2812322339186217
-0.2682555092831651 3.6411644987384206 0.17804735700572344
-0.3830830819419662 3.673761523176654 0.04440725048107466
-0.3566173890038022 3.699037669001883 -0.14090282886544406
-0.3463978086926336 3.736228414659833 0.06800036803996043
-0.28829588308096654 3.3579658693169856 -0.12253798721646326
-0.3285430736575011 3.4526662040247813 -0.01105520300611977
0.1611305994285952 3.610157248710995 0.2164968674749671
0.02750726894001915 3.6405824065358945 0.22428347257453574
-0.15042158806515726 3.7665275904671645 0.32083606556115446
-0.06665866856439281 3.671645111202308 0.24869552253948676
0.2913655424488201 3.7056939173629977 -0.13582234721955344
0.16219956688426257 3.641018738485343 -0.2324185236488216
0.16845056311463522 3.5790525956167896 -0.30346337560908554
0.3014682040168925 3.5489422528251824 -0.1076870258247328
-0.14428269131372568 4.239670416262357 -0.32700008334082115
0.0023200210969469386 4.0809654369975865 -0.2900128383028275
0.125997054998243 4.141643015313584 -0.3626120286789826
0.07575946750694892 3.9546694370630924 -0.2739999656002392
-0.1800677305469601 3.9249245885599335 0.24945373490014316
-0.26604380664195704 4.1431884426454655 0.17938683730040306
-0.264631878779222 4.080479145658949 0.11416795796066574
-0.20798827466845815 4.235868267437204 0.1263693941825097
-0.32289421696259923 4.238206979648331 -0.10216724864804312
0.30967871461493385 3.865492331131552 0.19390862597342176
0.19007582983395496 3.922806364523142 0.1860127331167502
0.20707956569959318 4.0783583314713985 0.14588932991301506
0.10093906979366031 4.204202567005997 0.23383968223865179
0.04781753489928518 4.235858917318287 0.2756825503667861
0.18918091257010256 4.0480186875681845 -0.06285445578498125
0.27449873019656645 4.173320927016617 0.03948896330256122
-0.1319305793177786 4.68435389463129 -0.29471467071624236
-0.0020297444393415215 4.515084602639714 -0.195949400130085
0.09467817413577391 4.4614222848882665 -0.3276236232572178
-0.20177201872351463 4.6253335636850235 0.12561195898129085
-0.22975400593364725 4.681231493669316 0.22869032145914484
-0.21879529103187423 4.6807181456335245 0.03513580657586073
0.16858779055327414 4.597272371411928 0.2453297867569485
0.22544427043677615 4.5968556759105 0.2111502321370022
0.0560524953775452 4.707774140157433 0.29691079529198205
0.244642304676096 4.6535534015299 -0.11212552367541798
0.18732016565617 4.651622867678446 -0.03051532516174791
0.30947497719169326 4.625142611358196 0.12291952682088259
0.33945086991219275 4.40567619850547 0.051650333113041
0.1733019647205295 4.457263129882883 0.10370616733192517
-0.056551629923458344 5.065514361112408 -0.1643542703975753
0.04444517901105502 5.096066874271436 -0.3231858731349901
0.06741809286289341 4.846713014827682 -0.2667534711385953
-0.15357685840070115 4.955615263009136 0.22897530904531363
-0.2363323806950681 5.039275979456904 0.10694437761755954
-0.20779169314598478 5.121632148095895 0.18780477076802068
-0.21782617293781265 5.066057274039374 0.009291291989150902
0.1736127861421266 5.011073968129084 0.2678523068404016
0.2931013293357616 5.121837190293488 0.2029509826836226
0.3642641531540154 5.001719877648666 0.1860910042631907
0.26348135027865005 5.066060745439765 -0.022369704889439596
0.3128287492967543 4.817837748262251 0.05724866743838306
0.33477140310037284 4.814501659271717 0.12392465213291483
-0.06674017693757603 5.557209123948265 -0.2900135844194315
-0.05138417921977742 5.493700393253252 -0.24550427319213008
0.19196384593521593 5.427444071134179 -0.3528116914828442
0.08482409934995896 5.304466362723102 -0.17450441696412639
0.11912677622363588 5.3671320696827 -0.2977319570470613
-0.2383076828062466 5.587889087479151 0.10647277927549818
-0.18338075507138152 5.554385620129862 0.3319996487743748
-0.1914810008625405 5.429539932666047 0.036019710197570796
0.1964846699421384 5.305839233786267 0.24641189637982236
0.25525925057944443 5.398776878026098 0.15912544706583293
0.13372579202972884 5.55540885292442 0.1557798877317303
0.24871044703178535 5.492823479002936 0.15299547247659254
-0.025309523829022115 5.49255736933892 0.20268503410693967
0.25347564457396576 5.4304747594123635 -0.018219570780870324
0.3136750670160555 5.271896012676866 0.12501779991484827
-0.22194691716946052 5.8929716652950574 -0.11538851929439325
-0.0896023416047443 5.898999083880899 -0.1610439253638835
0.0835034594983855 6.113345372449715 -0.2011732451039144
-0.13776437061535102 6.055698890817165 0.0400895731013268
-0.3031437432493646 5.9634031304770065 -0.04833587437631515
-0.24892164889352583 6.055938788679945 -0.09156395555225524
-0.26033664978730875 5.993802535936686 -0.06151669598089096
0.11032111572210959 6.05862000005044 0.19360436860583244
-0.11270756297482827 5.800956343963415 0.17893267634734805
0.1408339691229175 5.7746272502300755 -0.19256368471049706
0.23109582685501728 5.9633752924652095 -0.2379200455802302
0.22823899425554828 5.9954058441778795 -0.10544195094518408
0.16180273275258814 6.118993620661066 -0.16628934636509157
0.2971099865089627 6.059529297872746 0.013264718566256588
-0.1587699920904278 11.964103750944773 0.065943274295924
0.011527893814607067 12.228860245569523 0.14670036211492254
0.028587394208989342 12.163598795018002 0.07496015222026547
-0.0211513666623762 12.401542985198658 -0.13749438539204345
-0.02189653408635015 12.401935661965695 -0.06574094631624212
0.036288841580077266 12.516442335745136 -0.022992251254068674
-0.11257246070317348 14.06315254140834 -0.12191972256028304
-0.07890199060362768 14.072063434190465 -0.038331355126144266
0.028743821160011257 14.124577360854612 -0.02408773131573421
-0.052674533662658986 13.849133881914916 -0.016320674619081696
-0.046759481444277044 14.071627592020944 -0.09343107893957693
-0.09973618462567731 14.39554636688189 -0.11242556401309384
-0.031801268356835916 14.515533348194246 -0.034861649156811794
-0.0649784722722541 14.281969175738956 -0.08143570729544097
-0.0628576602319686 14.563141585222825 -0.10231641817797384
-0.06650790535080461 14.99735168820687 -0.16806806031003121
-0.08030394874282677 14.822599428443532 -0.046971903390852776
-0.03540701860669642 14.937444775756157 -0.1559633216377763
-0.12314645772256262 6.7745157453672 -0.010710404366833055
-0.254208734091919 6.74154735477416 -0.015976253964033613
-0.429748544255219 6.710843006864624 -0.05899044936789034
-0.5788827295853357 6.653065572028202 0.021765138311352156
-0.7256886105215604 6.614739114587204 -1.5503483078573022E-4
-0.7918683252468205 6.602697172309931 -0.024558567672835204
-1.0663192167061772 6.576090031918513 0.16641915640959928
-1.6737122226171028 6.66654846109482 0.19142725142496753
-1.684170804273769 6.668248718823447 0.17878649141496905
-1.8381372554230044 6.607073014057332 0.16911308714872858
0.09649766986246636 7.140350705865868 0.07353457541855411
0.18040201412114917 7.0178917805550665 0.15913101842484245
0.1852155891107949 6.987860677895435 0.0970885471262701
0.2369566692829259 7.07285041533947 0.37145426372433116
0.40130774351490417 6.9612932249866315 0.3943072415184816
0.6040982210574106 7.057173337409008 0.44148923397550316
0.5412354623988803 7.085035490600516 0.4521531853690783
0.7296408690985037 7.024779956689757 0.5264819612867115
0.8323550310973419 7.009268339176331 0.6975208968534868
0.9616070873302435 6.962295324224996 0.738331552167107
1.1887097398572808 7.03877117813757 0.850910530564075
1.323351266640543 7.019695186142765 1.056000297342528
1.4622853046879942 7.04216413042513 1.1431488788902069
1.8483637201482757 7.246491987529599 1.4924788374074978
1.9875112743501564 7.298284282759011 1.6750318220105465
2.4033198818855572 7.430857480220951 1.9218186217472981
-0.050111011542587736 7.442970042620132 -0.1555751982583429
-0.05276013419284757 7.457707058868338 -0.290937419819309
-0.2220785191252839 7.526977492528962 -0.41046951427080125
-0.054454744835594066 7.352314037890482 -0.45068566010536504
-0.14727035315381332 7.444598171494112 -0.7867705665784637
-0.08028677300383283 7.426446426487334 -0.9324419470297716
-0.2623236273193882 7.419922434041116 -1.192931227628188
-0.2570084112606728 7.374306717887692 -1.1546552049277874
-0.20526267183123048 7.449532135042215 -1.296012596603627
-0.3580495913158003 7.462812432370368 -1.6854445508848417
-0.25110068089416143 7.3637070456486216 -1.663170571801195
-0.280271608239635 7.433529626488144 -1.8606277054707003
-0.35092993114339277 7.399147556060513 -2.0046196455025913
-0.38139378307882726 7.619661571413453 -2.3592093261563765
-0.36707893131708524 7.677295347323439 -2.5159319732353898
-0.4766154961802988 7.661920365953713 -2.6646189976264525
-0.5457754305228371 7.779961156657886 -2.972237408147123
-0.5669543807953329 7.834386843867247 -3.1178604338400797
-0.6092735146667698 7.895743096348504 -3.2795435498900445
-0.07177101591430717 7.8265369233951665 0.05795453332915928
-0.18629022831570793 7.912997463860252 0.30542232830906607
-0.3382546876114221 7.910244712242607 0.33446719856188134
-0.48428063382482944 7.870627670100174 0.7106810841158219
-0.5145181378973516 7.6908562096357045 0.8690729605260029
-0.8334126242322366 7.811745836976174 1.2826518949391934
-0.8675445507298049 7.748106276819845 1.3167352641266863
-0.9968556853449315 7.845847603305119 1.5679226113993618
-1.0069842168531813 7.869679786929226 1.6622654941849666
-1.1744221252984757 7.889571962706764 1.8206390284659963
-1.4119270510055444 8.043184367694451 2.1808111965632966
-1.4868189081667809 7.998744907995394 2.2403857707375305
-1.7862649666712977 8.098209063340605 2.471709440832808
-1.7048164017735778 8.135496937587085 2.5448367947794988
-1.879887923907058 8.245975989092747 2.7557413700895057
-2.1006353582826387 8.380454303911938 3.026025139284278
1.1294362826805209 8.175128378347463 -0.39810645644458903
1.9474961231940757 8.150794858707744 -0.5600076340409739
2.1680966156213906 8.322418213585562 -0.6034481227308242
2.2130738855191945 8.301371854889835 -0.6594782641732346
2.6205258873797375 8.443593403553672 -0.7394127522462993
2.8327416311963423 8.554790118442211 -0.7572263539431758
3.071949544039065 8.614241724242754 -0.8308152498471884
3.224405846528701 8.653504175480437 -0.8801729315185616
3.4608971322856568 8.75649333670061 -0.9475788501087368
3.592116329385912 8.797390831086329 -1.007476884491645
-1.8416095325508026 8.819618891823604 -0.9985253623149488
-2.125001923129525 8.712766082733411 -1.0872790356154505
-2.6346261340812074 9.06342471518803 -1.3027140882016113
-2.553389389572317 8.977502743622862 -1.3854242455392864
-2.847414390129362 9.080179645529896 -1.4787356319338085
-3.0854918488053373 9.218162297753917 -1.5517483096408815
-3.0220874387046543 9.188401353948782 -1.5914687958647096
-3.049966359926921 9.090861011764918 -1.586322406437418
-3.2314059073813257 9.09048982574871 -1.5799639680558428
-3.469301188633668 9.40280935187517 -1.7165668391386488
0.7843794923721287 9.036980891563532 2.0772573947204993
0.7860297595073421 9.094113510352775 2.231656084362612
1.0268886229642085 9.513389336834292 2.991427331669433
1.1014845490044392 9.534339555004614 3.2114637373989483
1.2623478585604873 9.62318128883949 3.3857366875008457
1.248561471719818 9.649052477363831 3.5117223845501595
1.2654308247517954 9.740555438523984 3.5776754175731242
1.4170298337571652 9.858820835242364 3.8323690052810107
0.5026208062510488 9.53569791744006 -1.318063340603873
0.767698237437976 9.611317429459852 -1.8167264089008985
0.8041957795203781 9.681296217820751 -2.0458262199137396
0.987969150312111 9.864343468187966 -2.44467988270461
1.0692165625701353 9.793072733750313 -2.4681337332770314
1.2919281699001173 10.089505566560618 -2.9106713681062093
1.3882597653867863 10.366150270290106 -3.3059526846901655
1.445214676274545 10.320524853164484 -3.308963303450679
1.450175331317743 10.487467636655492 -3.403058807720478
1.4757281620499 10.56786549276395 -3.712286477233749
1.4757248946852604 10.543729608498056 -3.6116579170538134
-1.119185337142992 9.964701733380448 0.5242886779405653
-1.2513572800629602 9.877926537332575 0.4158897911480418
-1.7112445624554073 10.074376575800335 0.8458042100617559
-1.9210818697826528 10.046619287992849 0.9024795050970534
-2.2442796014263497 10.375408601534499 1.12539721283427
-2.4259993735107135 10.489344220931956 1.1936810275115575
-2.5691508208989924 10.411375249125658 1.1773840126556165
-2.480584438948228 10.352490877861666 1.178724181092815
-2.79991584053192 10.635923052204735 1.338387926634759
-2.9119543862078037 10.821071725193999 1.4012764449600013
-3.089491830306553 10.773894442998293 1.4343738265392667
-3.3069892621965167 10.905736824080508 1.5568124380999815
-3.4314997378738075 11.025990268039493 1.7348314382404493
1.0708665646333966 10.362553947100585 0.3422865896558018
1.2467005194139196 10.44355425314889 0.34672694557486244
1.3928503637228553 10.430836326352006 0.4491624612936889
1.6665482957984765 10.618218878847209 0.4621593132637857
1.787090575659194 10.722678036342602 0.5634191078906735
1.9621668631056521 10.667386058329772 0.6738906600756409
2.072613202653479 10.774066936920697 0.6499643317899257
2.3503502350679604 10.995430377849774 0.6315726259523982
2.2659590124108675 10.877225135952944 0.7460726053691966
2.4243346591096646 11.023498972429184 0.8512084026245927
2.728197671291987 11.251683297708299 0.9579354748250024
2.8224590913914955 11.368743934378871 1.0716712363197503
3.039532365498589 11.525011663278448 1.0273923196118788
3.3698597494359728 11.716350954809881 1.120988888725631
-0.3493378319732021 10.559747548149229 -0.3127031469865901
-0.522599994301658 10.692894601456315 -0.9546167524257828
-0.5758943962931744 10.643792981398054 -0.8798847424643969
-0.6311308847998959 10.846616331442466 -1.1038641218216958
-0.8215475254193377 10.962167707299647 -1.2834890921914766
-0.8337213783443076 10.912604009263202 -1.5768644842972719
-1.0964225381355337 10.98576821602116 -1.7235890778142853
-1.0690587026713525 10.89373706717024 -1.7794333582118302
-1.0951720986401148 11.13669414205263 -1.899590260793758
-1.2244819552752166 11.241225042888145 -2.143585345017637
-1.4473566479585218 11.439278658410478 -2.494779089184715
-1.4921548637856292 11.529604076346855 -2.6431437367544475
-1.559869174380278 11.560641790149457 -2.6422158176974504
-1.6037839263145728 11.577354063083078 -2.6989539989648588
0.05678660637689691 10.904410436605147 0.05145615121885921
-0.18015970522608282 10.954830605133687 0.263786149107834
-0.09913786632250411 10.89056437732783 0.43690934136780907
-0.3941231091606532 11.069618795048266 0.9460874076315626
-0.3035920326217853 11.309672440565794 1.1630420749158825
-0.3201616125554083 11.349439866872917 1.2535677006069492
-0.3536028259658256 11.334846840787858 1.5336270675449246
-0.39060022725088783 11.557950692952621 1.828039257740912
-0.3862102321729564 11.584138613854606 1.8647264450045598
-0.48529286619622897 11.8893151500874 2.2159977025200006
-0.5802562911502138 12.017049081108562 2.433688617237722
-0.48683392612273374 12.097800108139458 2.624423241547922
-0.5980326225756355 12.329144713230457 2.905310995009475
-0.6504709264036528 12.629436893228526 3.1579988203398464
0.09618555425135003 11.41114590932938 -0.09146885528304526
0.19827872168862884 11.382981302819351 -0.11050297270650952
0.10205318907897953 11.409124015418142 -0.11693939960695071
0.5256471275005715 11.473988007248856 -0.335142290780971
0.6931494476511059 11.497475249303319 -0.4477695752850075
0.7869129709260142 11.558298369837638 -0.6150400402272829
1.0243497812797957 11.813231208077214 -0.8531179771520904
1.193542825685975 11.889578404142998 -0.8622230973651738
1.387311843490699 11.945447307995586 -0.9073795202110941
1.5611925309864032 11.974744360382116 -0.9016815017915681
1.5903673081254088 12.104850830478961 -1.0821853894745508
1.6841276272005758 12.17070791455369 -1.1937774862827348
1.804714735908506 12.305353052472594 -1.3000737727775507
1.9841356029091395 12.559177288452071 -1.363978688381874
2.0953553594560193 12.662728779782743 -1.4113064353261904
2.2366774682868327 12.82887398836869 -1.5688328392046742
2.277125342799997 12.841943871080286 -1.5084365588786262
2.3602314900734673 12.91685424859851 -1.6343021219551892
2.474555216598386 12.987735232131183 -1.6137383046126255
-0.14004262442576526 11.77799921887911 -0.06680429697065708
-0.29700025520177253 11.893290951900534 -0.026756589662115422
-0.44415464533171717 11.919310899819974 -0.1515560637008056
-0.6390432521137583 11.93811977020135 -0.15899405805332953
-0.6374523293149544 11.803336801476172 -0.13699780241171028
-0.6717280666128657 11.885838401138486 -0.06290380383495671
-0.9512210192824174 12.134987509654515 -0.07787356648132772
-1.0565321158455947 12.07040986597387 -0.2789774828806898
-1.1335019090159941 12.27526203380795 -0.1629645707875023
-1.4221383808530792 12.331440678962448 -0.22190028203106116
-1.6087149632909306 12.365195969113927 -0.18453466737959165
-1.6485846464854603 12.620449169605724 -0.2158998346778725
-1.861213824432218 12.67471974536727 -0.3215340716878032
-2.0026661197160167 12.74358227361121 -0.25812252176092987
-2.1606695662137434 12.971886327322911 -0.3101775287248626
-2.291562639853121 13.209882783540092 -0.3206086976761151
-2.4170595948340696 13.292882842390943 -0.2435031173767274
-2.4283699129767484 13.397546607379535 -0.3276095414575992
0.09069615704407737 12.057162126993816 0.08546542844673068
0.15353815396916667 12.119387141193537 0.16219080477083236
0.16072961973226033 12.219573137655354 0.2479486329051995
0.4107963411717054 12.422250819001315 0.5107985766954568
0.5223804608226474 12.290344679802505 0.591756372047944
0.6454461506702669 12.655678053113466 0.8787720945120605
0.783894462740241 12.762283439314542 0.876445598205785
0.8503214028433639 12.841484972307146 1.0511633540542227
0.9249369065200969 12.975478865357154 1.1407827919320834
0.9559643508702651 13.116197077597292 1.1857052130583534
1.1587114637808977 13.214662802244995 1.3663847376252376
1.139142047284664 13.277386346586418 1.4249803788909767
1.3859526264283508 13.503795780722129 1.6210721349809576
1.6289879048890397 14.056366345845598 1.916878609601747
-0.13016603592236767 12.529553341088377 -0.29113639834239313
0.014084443518144973 12.694902429603818 -0.5551737999103801
0.008167095922876986 12.918416012706983 -0.8912485314626474
0.07383046896373612 13.018020659208032 -0.8923092601670456
-3.83608547894522E-4 13.134176414965854 -1.0418706595271052
0.09820565701069216 13.113903442539382 -1.20557770070263
0.10707697187608362 13.240414776244107 -1.3594587636831337
0.0591483971287683 13.485953400391493 -1.569018343998535
0.08963644597144002 13.52725112173254 -1.5960852720064616
0.16191455652797462 14.09337817803487 -2.1045539411041405
0.1415593513667634 14.410247843769442 -2.261088634077178
-0.14455883876642284 12.737071201012329 0.025453832555029438
-0.16900872893299587 12.889660530440187 0.1466223605006287
-0.22023285124415112 12.892620127753046 0.21615652846508562
-0.5995702424625681 13.235450760498178 0.4836059096606964
-0.5592388798342889 13.418710278168112 0.5507975251165854
-0.6360368849026173 13.515892826855843 0.6511794473884319
-0.5187931268652202 13.444599104844409 0.7942076481465199
-0.7959699087322966 13.707742905332427 0.8465224079048194
-0.8914661925941006 13.847585019348175 0.9063854830154096
-1.0246016622294576 14.057610160547421 1.0505206734023305
-1.148292599809145 14.506686873895513 1.3135255639410133
-0.003420026541717429 13.263053118271879 -0.16759575737047802
0.19572576230827993 13.288175388509064 -0.10003573520097575
0.23336110535558013 13.345308054272714 0.13159117760353442
0.3574400702374007 13.308524577948578 -0.05430534402538199
0.4068509281223092 13.507909038896523 -0.10052083191005437
0.459843576571305 13.618989580838482 -0.04780675810232763
0.4764903122736239 13.602949571535303 -0.05655991056750724
0.7791094763240053 14.012470642918778 -0.046908012976947945
0.7730918720078845 13.921864147476025 0.001296951875201128
0.8640881434331283 14.143640454322476 -0.01660889709808248
1.061668858834607 14.367980698521263 -0.13744671848194798
1.1870361009255894 14.489064536400539 0.012642072247539987
-0.2249970817866897 13.754079626926268 -0.1669025708551975
-0.3052984485234393 13.828803704626194 -0.2635539863087308
-0.4619160011744617 14.078116691255449 -0.34948638591035436
-0.4726860290901081 13.983081471512905 -0.2720696969509189
-0.7326061486020072 14.316798553363693 -0.5278467021476778
-0.6931425797061751 14.461266816769582 -0.6213391909896232
-0.6891447296291173 14.4717870086476 -0.6002565877164754
-0.9228756279139013 14.81048415469569 -0.7167790378612866
-0.05555472642592023 14.037110359204929 -0.005152287794341594
-0.07201094704263603 14.182512798888506 0.23109619527748526
0.07777490145974315 14.450087647799656 0.31279504755658427
-0.137024962833457 16.69327284875505 -0.09240113752358196
-0.12954681921770783 6.287099215781498 -0.20362956647386826
0.09928028323703313 6.534535094548349 -0.2481739648123938
0.05305818007533787 6.1770750710799645 -0.25281586001226847
-0.2086405485834169 6.234209672641235 0.11717741064753084
-0.21149434273513257 6.17765746171691 0.008128829571628688
-0.18889287776569896 6.179947837396701 0.19727142171855544
0.15911616250722554 6.42610296457586 0.11245384687815552
0.08486987083593472 6.207965707640919 0.19984520308185164
6.203135187575724E-4 6.259739624821375 0.1150171232117624
0.12730246853213767 6.23180981979567 0.05542233805455017
0.1685675603950922 6.178226803552377 -0.22967645685113375
0.1780899250331894 6.262443624908604 -0.147763383814076
0.24942247496794204 6.235141032687219 -0.05677295559461126
0.16393662650595062 6.453836317787233 0.0749497483698009
0.20137732565602084 6.2981593333626495 0.10081174406268253
-0.05207705762645286 6.755247466153704 -0.21579605150876133
0.0715983346951639 6.783990025129823 -0.25189347804088114
0.05818876611040124 6.8100345628223735 -0.19721978315126515
0.1017123376584294 6.591622815737875 -0.2607150855413514
-0.3279072215408481 6.698781835462417 0.008939935778513361
-0.11431756975296384 6.646475378283955 0.1609936572475816
0.12397440887870177 6.813871523644071 0.17313056436457358
-0.08966587276222521 6.6221744238370865 0.2615792510685774
0.19326469073945787 6.735130949762717 0.09710981684681466
0.26774730620960324 6.786655937088014 0.06145577557773203
0.177254885543622 6.894354192427538 0.03333902107855477
-0.14350917504640498 7.125351845371133 -0.18350530353392863
-0.08806818713484177 7.126177525708363 -0.24926284420872677
-0.01295636178466631 7.25274554622489 -0.32510274768585307
-0.04797887682853052 7.093909501044415 -0.20541461680518117
0.08892657623738894 7.378699255905174 -0.2845760782233423
0.0911320106686419 7.156732439208806 -0.2408946614376254
-0.1357840444466219 7.377010543445181 0.20016997684837876
-0.21565115633001167 7.0609481664550335 -0.06724109660442294
-0.22432002178818616 7.159038424192841 0.19412787738450243
0.17392977151950195 7.2861040767633005 0.17045317497941184
-0.04791476387508078 7.1562014218555605 0.1184497141592516
0.21330262410088993 7.0962616507313845 0.1705839987114671
0.13815562142338944 7.062807851087373 -0.18360599086698184
0.14357417139864995 7.125299781518387 -0.08486290253830721
0.2758564152359951 7.117127216578746 -0.031990382656836944
0.24108403727495356 7.37597556599978 0.12299722446378643
0.18448473350436176 7.3445712746864595 -9.74555541368926E-4
-0.2074189755256098 7.910756713169569 -0.1262399594901323
-0.17124044334533842 7.722495365974001 -0.14743816009007896
-0.14691296510061425 7.558189218058641 -0.07550013375658682
-0.25609130946311365 7.5663598365674405 0.14233654152415132
-0.1592441224227897 7.786892790599954 -0.0910886216858025
-0.11356995250691315 7.78335294877692 0.006341833435123075
-0.18397737579991016 7.564363999910737 -0.05022821290555245
0.11826554203609844 7.689616132554392 0.23076251093719946
-0.05926206596553885 7.68811966310295 0.1298093082944572
-0.04633770868886462 7.913423663827724 0.21651094185778816
0.08466817721081203 7.880049400365589 -0.16056538149582178
0.2469077508372466 7.560038096580755 0.0662402261836266
0.04756607370476679 7.750611582615018 0.002513028482184404
0.14110467723881284 7.595993480478539 -0.17805004593367119
-0.1583923508462357 8.341192586362439 -0.1996508107345743
-0.11741181909274595 8.313619239696715 -0.1570867219628642
-0.09971605683570908 8.19967752530341 -0.09021322663867981
0.016288993951376625 8.123609997807778 -0.23644366402663597
-0.03435718781447667 8.23063192646689 -0.1793994149936359
-0.1922052022226639 8.17390662411113 -0.10728992038835085
-0.17902659320436895 8.227131452105583 0.08066240732248732
-0.11428062865212836 8.142984373997356 -0.03238416022062689
