ply
format ascii 1.0
comment VCGLIB generated
element vertex 1685
property float x
property float y
property float z
element face 0
property list uchar int vertex_indices
end_header
-0.162540 11.910500 -0.088576
-0.161508 11.938000 -0.088284
0.044576 11.827500 0.038083
0.022905 11.910300 0.043120
-0.001461 11.882900 0.051498
0.020884 11.827700 0.045626
-0.010613 11.993200 0.051929
-0.010613 11.993200 0.051929
0.000560 11.965500 0.048993
-0.000787 11.910400 0.050663
0.022905 11.910300 0.043120
-0.014654 11.827900 0.056939
-0.034305 11.993300 0.059472
-0.046824 11.965900 0.064078
-0.046824 11.965900 0.064078
-0.035652 11.938200 0.061142
-0.035652 11.938200 0.061142
-0.081689 11.993600 0.074557
-0.070516 11.966000 0.071621
-0.057997 11.993500 0.067014
-0.069169 12.021100 0.069951
-0.036999 11.883200 0.062812
-0.099993 12.214100 0.075419
-0.101340 12.159100 0.077089
-0.077648 12.158900 0.069547
-0.090841 12.103900 0.074988
-0.090841 12.103900 0.074988
-0.056650 12.048600 0.065344
-0.067823 12.076200 0.068280
-0.055303 12.103600 0.063674
-0.102687 12.104000 0.078759
-0.090841 12.103900 0.074988
-0.021785 12.020800 0.054865
-0.032958 12.048400 0.057802
-0.085730 11.828400 0.079567
-0.097576 11.828500 0.083339
-0.073884 11.828300 0.075796
-0.074557 11.800800 0.076631
-0.085730 11.828400 0.079567
-0.073884 11.828300 0.075796
-0.072537 11.883400 0.074126
-0.084383 11.883500 0.077897
-0.062038 11.828200 0.072025
0.025399 12.156800 -0.129771
0.025399 12.156800 -0.129771
0.029266 12.129300 -0.118577
0.021722 12.129200 -0.142269
0.021818 12.101700 -0.142920
0.044734 12.019400 -0.073799
0.037000 12.074400 -0.096188
0.044829 11.991900 -0.074450
0.048601 11.992000 -0.062604
0.044734 12.019400 -0.073799
0.045114 11.909300 -0.076404
0.037571 11.909200 -0.100096
0.049172 11.826800 -0.066513
0.045210 11.881800 -0.077056
0.068031 11.827100 -0.007283
0.060392 11.854500 -0.030323
0.052658 11.909400 -0.052712
0.052753 11.881900 -0.053364
0.060297 11.882000 -0.029672
0.052848 11.854400 -0.054015
0.056715 11.826900 -0.042821
0.052468 11.964500 -0.051409
0.056335 11.937000 -0.040215
0.052658 11.909400 -0.052712
0.026541 11.826400 -0.137589
0.026351 11.881500 -0.136286
0.026161 11.936500 -0.134983
0.045495 11.799200 -0.079010
-0.118695 12.598400 -0.100954
-0.111159 12.515900 -0.105009
-0.069347 12.487800 -0.118872
-0.133655 12.488600 -0.098399
-0.134716 12.461200 -0.098614
-0.073589 12.377900 -0.119729
-0.084307 12.378100 -0.116317
-0.096086 12.350700 -0.113119
-0.093965 12.405700 -0.112690
-0.077832 12.268000 -0.120586
-0.076771 12.295500 -0.120372
-0.103622 12.433300 -0.109064
-0.105744 12.378300 -0.109493
-0.013524 12.267200 -0.141059
-0.012463 12.294700 -0.140844
-0.013524 12.267200 -0.141059
-0.012463 12.294700 -0.140844
-0.055335 12.295200 -0.127196
-0.060750 12.432700 -0.122712
-0.051093 12.405100 -0.126339
-0.062871 12.377800 -0.123141
-0.143201 12.241300 -0.100328
-0.152858 12.268900 -0.096702
-0.131422 12.268700 -0.103526
-0.121765 12.241100 -0.107152
-0.118583 12.323500 -0.106509
-0.136837 12.406200 -0.099042
-0.137898 12.378700 -0.099257
-0.116462 12.378500 -0.106081
-0.116462 12.378500 -0.106081
-0.148616 12.378900 -0.095844
-0.098207 12.295700 -0.113548
-0.106375 12.324100 0.043071
-0.108497 12.269100 0.042642
-0.114261 12.296600 0.021419
-0.115783 12.433900 0.001053
-0.114491 12.379000 0.011343
-0.121086 12.296500 -0.000019
-0.119195 12.433900 -0.009666
-0.126020 12.433900 -0.031103
-0.126020 12.433900 -0.031103
-0.124729 12.379000 -0.020813
-0.130493 12.406400 -0.042036
-0.137318 12.406400 -0.063474
-0.136257 12.433900 -0.063260
-0.123438 12.324000 -0.010523
-0.132614 12.351400 -0.042465
-0.136718 12.598700 -0.083411
-0.136718 12.598700 -0.083411
-0.129894 12.598700 -0.061974
-0.133075 12.516300 -0.062617
-0.142252 12.543700 -0.094559
-0.138840 12.543700 -0.083840
-0.123899 12.488900 -0.030675
-0.126251 12.516300 -0.041179
-0.127311 12.488800 -0.041393
-0.146034 12.269000 -0.075264
-0.148385 12.296400 -0.085769
-0.141560 12.296500 -0.064331
-0.143912 12.323900 -0.074836
-0.137087 12.324000 -0.053398
-0.147325 12.323900 -0.085554
-0.130032 12.241600 -0.021885
-0.139209 12.269000 -0.053827
-0.139209 12.269000 -0.053827
-0.139439 12.351400 -0.063902
0.061451 12.239700 0.023403
0.061451 12.239700 0.023403
0.031404 12.322700 0.030898
0.020686 12.322900 0.034310
0.019984 12.295300 0.035224
0.020686 12.322900 0.034310
0.019984 12.295300 0.035224
-0.002857 12.240500 0.043875
-0.012873 12.268200 0.046374
-0.001453 12.295600 0.042048
-0.019376 12.433700 0.044303
-0.051531 12.434100 0.054539
-0.063654 12.379100 0.059779
-0.051531 12.434100 0.054539
-0.062249 12.434200 0.057951
-0.023591 12.268300 0.049786
-0.078768 12.627400 0.058379
-0.079470 12.599800 0.059292
-0.078768 12.627400 0.058379
-0.068752 12.599700 0.055880
-0.070157 12.544600 0.057708
-0.058737 12.572000 0.053382
-0.071562 12.489400 0.059536
-0.081578 12.517100 0.062034
-0.082280 12.489600 0.062948
-0.071562 12.489400 0.059536
-0.091593 12.544800 0.064532
-0.081578 12.517100 0.062034
-0.028690 12.488900 0.045887
-0.018674 12.461200 0.043389
-0.040110 12.461500 0.050213
-0.045027 12.268600 0.056610
-0.054340 12.323800 0.058194
-0.043622 12.323700 0.054782
-0.085090 12.379300 0.066603
-0.085792 12.351800 0.067517
-0.064356 12.351500 0.060693
-0.074372 12.379200 0.063191
0.016705 12.597000 -0.144059
0.020184 12.569500 -0.133914
0.037446 12.487000 -0.082039
0.033967 12.514500 -0.092185
0.020317 12.514500 -0.135060
0.037579 12.432000 -0.083185
0.034166 12.432000 -0.093904
0.034166 12.432000 -0.093904
0.023929 12.431900 -0.126060
0.027341 12.431900 -0.115341
0.048215 12.266900 -0.054467
0.048149 12.294500 -0.053894
0.044670 12.322000 -0.064040
0.020849 12.294300 -0.139644
0.020516 12.431900 -0.136779
0.020650 12.376900 -0.137925
0.017237 12.376900 -0.148644
0.020716 12.349400 -0.138498
0.041457 12.239400 -0.076478
0.034499 12.294400 -0.096769
-0.100725 13.274400 -0.104856
-0.092262 13.274300 -0.107552
-0.075335 13.274300 -0.112943
-0.068851 13.368100 -0.116245
-0.059728 13.336800 -0.118738
-0.065551 13.211700 -0.115233
-0.066211 13.242900 -0.115435
-0.065551 13.211700 -0.115233
-0.044121 13.399300 -0.124534
-0.036317 13.430500 -0.127432
-0.027194 13.399200 -0.129925
-0.042801 13.336700 -0.124129
-0.051264 13.336700 -0.121434
-0.049284 13.242900 -0.120826
-0.007083 13.649300 -0.139630
-0.004443 13.524200 -0.138820
-0.005103 13.555500 -0.139023
-0.012907 13.524300 -0.136125
-0.020710 13.493000 -0.133227
-0.002463 13.430400 -0.138213
-0.003783 13.492900 -0.138618
-0.053904 13.461900 -0.122243
-0.036317 13.430500 -0.127432
-0.014770 13.211500 -0.131405
-0.014110 13.180200 -0.131203
-0.015430 13.242700 -0.131608
-0.031697 13.211500 -0.126015
-0.024553 13.274100 -0.129115
-0.023233 13.211500 -0.128710
-0.088018 13.496600 -0.003076
-0.087910 13.527900 -0.004767
-0.088018 13.496600 -0.003076
-0.096212 13.464600 -0.026769
-0.093516 13.464800 -0.018308
-0.090605 13.527700 -0.013228
-0.093732 13.402200 -0.014927
-0.096643 13.339300 -0.020006
-0.096643 13.339300 -0.020006
-0.094055 13.308200 -0.009855
-0.096858 13.276700 -0.016625
-0.082950 13.403000 0.018917
-0.088341 13.402600 0.001995
-0.091036 13.402400 -0.006466
-0.121441 13.180800 -0.087702
-0.115942 13.212600 -0.072471
-0.115942 13.212600 -0.072471
-0.110443 13.244300 -0.057239
-0.104945 13.276100 -0.042008
-0.102249 13.276300 -0.033547
-0.105052 13.244700 -0.040318
-0.110551 13.213000 -0.055549
-0.101818 13.401500 -0.040309
-0.104729 13.338700 -0.045389
-0.083273 13.309100 0.023989
-0.083273 13.309100 0.023989
-0.082950 13.403000 0.018917
0.016778 13.559900 -0.011819
0.017798 13.528500 -0.010487
0.034725 13.528500 -0.015877
-0.005553 13.465900 0.000265
0.000871 13.528600 -0.005096
-0.011977 13.403200 0.005625
-0.010957 13.371900 0.006958
-0.009937 13.340500 0.008291
-0.018400 13.340500 0.010986
0.008010 13.309100 0.004233
0.008010 13.309100 0.004233
0.008010 13.309100 0.004233
-0.008917 13.309100 0.009623
0.021878 13.403100 -0.005156
-0.057658 13.246600 0.028461
-0.031248 13.215200 0.021707
-0.022784 13.215100 0.019012
-0.031248 13.215200 0.021707
-0.042771 13.309300 0.020405
-0.026864 13.340600 0.013681
0.017494 13.277700 0.002870
0.026977 13.246300 0.001508
0.032381 13.340300 -0.005186
0.002607 13.215000 0.010926
0.009030 13.277700 0.005565
0.019003 13.275000 -0.109443
0.023738 13.212500 -0.098317
0.028400 13.401500 -0.072469
0.029420 13.370100 -0.071136
0.027745 13.338600 -0.078264
0.034811 13.370600 -0.054214
0.030440 13.338800 -0.069803
0.034520 13.213300 -0.064473
0.032480 13.276100 -0.067138
0.036413 13.653600 -0.032364
0.041149 13.591100 -0.021238
0.042533 13.465500 -0.024368
0.040493 13.528200 -0.027034
0.031751 13.464600 -0.058212
0.051713 13.183200 -0.012374
0.043262 13.276900 -0.033294
0.040566 13.276700 -0.041755
0.047268 13.403000 -0.013242
0.047268 13.403000 -0.013242
0.046613 13.340000 -0.019037
0.046613 13.340000 -0.019037
0.042242 13.308300 -0.034627
-0.096294 13.735500 -0.112891
-0.089783 13.763000 -0.115604
-0.082447 13.763000 -0.117941
-0.082447 13.763000 -0.117941
-0.063738 13.873100 -0.126453
-0.083272 13.790600 -0.118316
-0.056402 13.873100 -0.128790
-0.041730 13.873100 -0.133465
-0.054753 13.818100 -0.128041
-0.019723 13.873200 -0.140478
-0.019723 13.873200 -0.140478
-0.051455 13.708100 -0.126541
-0.018158 14.065800 -0.145440
-0.018982 14.093300 -0.145815
-0.016509 14.010700 -0.144690
-0.032005 14.038200 -0.140390
-0.032005 14.038200 -0.140390
-0.030356 13.983200 -0.139640
-0.014036 13.928200 -0.143565
-0.006700 13.928200 -0.145902
-0.044203 13.955700 -0.134590
-0.006616 13.680600 -0.140191
-0.008265 13.735600 -0.140940
-0.009089 13.763100 -0.141315
-0.009089 13.763100 -0.141315
-0.044119 13.708100 -0.128878
-0.011562 13.845700 -0.142440
-0.011562 13.845700 -0.142440
-0.003402 13.818200 -0.144403
-0.082243 13.987400 -0.015653
-0.089136 13.931500 -0.033921
-0.091585 13.986200 -0.044976
-0.091245 13.821200 -0.033802
-0.089023 13.876500 -0.030196
-0.093468 13.765900 -0.037408
-0.095803 13.765600 -0.044739
-0.098139 13.765300 -0.052070
-0.084352 13.877100 -0.015535
-0.089023 13.876500 -0.030196
-0.109703 13.708800 -0.084999
-0.109760 13.736300 -0.086861
-0.105145 13.764400 -0.074062
-0.105089 13.736900 -0.072200
-0.100474 13.765000 -0.059401
-0.102697 13.709700 -0.063007
-0.100418 13.737500 -0.057538
-0.081734 13.739800 0.001108
-0.086348 13.711700 -0.011692
-0.081790 13.767300 -0.000755
-0.088797 13.766500 -0.022747
-0.093355 13.710900 -0.033684
-0.088797 13.766500 -0.022747
0.022694 14.043100 -0.044785
-0.008064 13.905400 -0.025579
0.017726 13.988000 -0.039440
-0.019183 13.822800 -0.016393
-0.003327 13.795300 -0.019564
-0.030302 13.740200 -0.007207
-0.030302 13.740200 -0.007207
-0.035039 13.850300 -0.013222
-0.033855 13.822800 -0.011718
0.019864 13.767800 -0.025072
-0.007110 13.712700 -0.012715
0.008845 13.764600 -0.110385
0.012332 13.792700 -0.097228
0.009963 13.847800 -0.100235
0.006477 13.819700 -0.113393
0.017069 13.682600 -0.091213
0.013516 13.765200 -0.095724
0.015786 13.876200 -0.079747
0.014635 13.848300 -0.085574
0.020457 13.876700 -0.065085
0.020490 13.821400 -0.069408
0.020490 13.821400 -0.069408
0.023977 13.849500 -0.056251
0.023977 13.849500 -0.056251
0.019372 13.738200 -0.079559
0.018187 13.765800 -0.081063
0.020523 13.766100 -0.073732
0.020325 14.098100 -0.047792
0.018023 14.042500 -0.059446
0.016871 14.014700 -0.065273
0.018056 13.987100 -0.063769
0.020424 13.932100 -0.060762
0.022760 13.932400 -0.053431
0.013417 13.931200 -0.082754
0.035753 13.684900 -0.032567
0.034569 13.712500 -0.034070
0.028714 13.739400 -0.050236
0.025194 13.766600 -0.059070
0.020556 13.710700 -0.078055
0.025194 13.766600 -0.059070
0.026411 13.683800 -0.061890
0.028648 13.850100 -0.041589
0.031016 13.795000 -0.038582
0.032168 13.822800 -0.032755
-0.093177 14.120500 -0.122802
-0.082588 14.175600 -0.127768
-0.083501 14.203100 -0.128272
-0.071998 14.230700 -0.132734
-0.081675 14.148100 -0.127264
-0.071085 14.203200 -0.132230
-0.063236 14.340900 -0.138709
-0.047166 14.230800 -0.140650
-0.037490 14.313400 -0.146121
-0.043698 14.313400 -0.144142
-0.029640 14.451100 -0.152600
-0.041143 14.423600 -0.148138
-0.026900 14.368500 -0.151087
-0.038403 14.341000 -0.146625
-0.038403 14.341000 -0.146625
-0.057941 14.368400 -0.141193
-0.053560 14.423500 -0.144180
-0.047352 14.423500 -0.146159
-0.019593 14.148300 -0.147052
-0.019593 14.148300 -0.147052
-0.025801 14.148300 -0.145074
-0.032922 14.175800 -0.143599
-0.043512 14.120700 -0.138633
-0.038217 14.148200 -0.141116
-0.024160 14.286000 -0.149574
-0.017038 14.258500 -0.151049
-0.088002 14.481600 -0.062109
-0.087857 14.454100 -0.060119
-0.087567 14.399200 -0.056139
-0.087567 14.399200 -0.056139
-0.083906 14.454700 -0.047715
-0.091374 14.371100 -0.066553
-0.087277 14.344200 -0.052159
-0.093060 14.315800 -0.068775
-0.093060 14.315800 -0.068775
-0.094600 14.233100 -0.069007
-0.092770 14.260800 -0.064795
-0.090794 14.261100 -0.058593
-0.092770 14.260800 -0.064795
-0.092479 14.205900 -0.060815
-0.083181 14.317300 -0.037765
-0.083181 14.317300 -0.037765
-0.086842 14.261800 -0.046189
-0.109971 14.148200 -0.112653
-0.102358 14.204400 -0.091825
-0.098407 14.205000 -0.079421
-0.100382 14.204700 -0.085623
-0.100093 14.149700 -0.081643
-0.098697 14.259900 -0.083401
-0.082166 14.124900 -0.023836
-0.080335 14.152700 -0.019624
-0.082456 14.179900 -0.027816
-0.086552 14.206800 -0.042210
-0.088528 14.206500 -0.048412
-0.086842 14.261800 -0.046189
-0.082746 14.234900 -0.031796
-0.082746 14.234900 -0.031796
-0.088528 14.206500 -0.048412
-0.004880 14.510300 -0.070148
0.000056 14.537800 -0.073757
-0.013479 14.427800 -0.061298
-0.013479 14.427800 -0.061298
-0.002335 14.455400 -0.066886
-0.023351 14.372800 -0.054078
-0.024623 14.400300 -0.055709
-0.024623 14.400300 -0.055709
0.001482 14.372900 -0.061994
-0.004726 14.372900 -0.060015
-0.034495 14.345300 -0.048490
-0.018261 14.262900 -0.047555
-0.020806 14.317900 -0.050817
-0.034341 14.207900 -0.038357
-0.028133 14.207900 -0.040336
-0.008390 14.317900 -0.054775
-0.064110 14.180300 -0.026832
-0.061565 14.125300 -0.023571
-0.059174 14.207800 -0.030442
-0.041822 14.235300 -0.038009
-0.052966 14.207800 -0.032421
-0.055511 14.262800 -0.035682
0.011661 14.153100 -0.048948
0.011661 14.153100 -0.048948
0.010388 14.180600 -0.050579
0.010388 14.180600 -0.050579
0.005452 14.153100 -0.046969
-0.003301 14.208000 -0.048252
-0.006964 14.153000 -0.043011
-0.006964 14.153000 -0.043011
0.000363 14.263000 -0.053492
-0.009509 14.208000 -0.046273
-0.010361 14.204200 -0.134813
-0.003865 14.149800 -0.119148
-0.006275 14.287800 -0.114898
-0.007682 14.232200 -0.124040
-0.002458 14.205400 -0.110006
-0.003595 14.315900 -0.104125
-0.002323 14.288400 -0.102494
0.001628 14.289000 -0.090090
0.000925 14.261200 -0.094661
0.006987 14.345200 -0.068544
0.000221 14.233400 -0.099233
0.005445 14.206600 -0.085198
0.005445 14.206600 -0.085198
-0.000647 14.510100 -0.078328
-0.003326 14.482000 -0.089102
0.001898 14.455100 -0.075067
0.001194 14.427300 -0.079638
-0.004164 14.371100 -0.101184
-0.004164 14.371100 -0.101184
0.014621 14.180300 -0.058759
0.008124 14.234600 -0.074425
0.007990 14.151600 -0.081936
0.008828 14.262400 -0.069854
-0.104226 14.592300 -0.132890
-0.090837 14.655000 -0.138928
-0.074220 14.780300 -0.147765
-0.072814 14.561100 -0.142019
-0.073741 14.592400 -0.142608
-0.075594 14.655000 -0.143788
-0.068213 14.749000 -0.148796
-0.058051 14.749100 -0.152035
-0.052043 14.717800 -0.153065
-0.067286 14.717700 -0.148206
-0.039581 14.811800 -0.159693
-0.048816 14.780400 -0.155864
-0.043735 14.780500 -0.157484
-0.046962 14.717800 -0.154685
-0.068660 14.592400 -0.144228
-0.066359 14.686400 -0.147616
-0.056197 14.686400 -0.150856
-0.043255 14.592500 -0.152327
-0.029866 14.655200 -0.158365
-0.046036 14.686500 -0.154095
-0.033573 14.780500 -0.160723
-0.037727 14.749200 -0.158514
-0.035874 14.686500 -0.157335
-0.086495 15.033500 -0.085665
-0.086337 15.002200 -0.083591
-0.090714 14.907700 -0.092594
-0.089255 14.939200 -0.089593
-0.087480 14.908200 -0.082443
-0.088939 14.876700 -0.085444
-0.087480 14.908200 -0.082443
-0.087480 14.908200 -0.082443
-0.092015 14.845000 -0.093520
-0.094775 14.750700 -0.097448
-0.091700 14.782500 -0.089372
-0.102070 14.593200 -0.112453
-0.103687 14.592900 -0.117529
-0.102386 14.655700 -0.116602
-0.095603 14.594200 -0.092151
-0.097378 14.625200 -0.099301
-0.097220 14.593900 -0.097227
-0.097535 14.656500 -0.101376
-0.099468 14.718700 -0.110600
-0.085902 14.595700 -0.061698
-0.089451 14.657700 -0.075998
-0.087992 14.689200 -0.072997
-0.084916 14.721000 -0.064921
-0.083299 14.721200 -0.059845
-0.092369 14.594700 -0.082000
-0.092369 14.594700 -0.082000
-0.024289 15.002700 -0.097775
-0.035676 14.908900 -0.087771
-0.047063 14.815100 -0.077768
-0.043267 14.846400 -0.081103
-0.038187 14.846400 -0.082722
-0.019148 14.877700 -0.090916
-0.022944 14.846400 -0.087581
-0.041923 14.690100 -0.070909
-0.033046 14.721400 -0.075863
-0.031761 14.690200 -0.074149
-0.030535 14.783900 -0.080913
-0.031761 14.690200 -0.074149
-0.040638 14.658900 -0.069194
-0.077429 14.565000 -0.051093
-0.077429 14.565000 -0.051093
-0.073633 14.596300 -0.054427
-0.068553 14.596300 -0.056047
-0.066042 14.658800 -0.061096
-0.058450 14.721300 -0.067765
-0.008867 14.627800 -0.077198
-0.005071 14.659000 -0.080532
-0.015233 14.659000 -0.077293
-0.012722 14.721500 -0.082342
-0.021599 14.690200 -0.077388
-0.026091 14.655800 -0.146514
-0.022857 14.656300 -0.136363
-0.021240 14.656500 -0.131287
-0.022194 14.719200 -0.129641
-0.022194 14.719200 -0.129641
-0.020577 14.719500 -0.124566
-0.015768 14.563000 -0.121068
-0.022815 14.813500 -0.124634
-0.019913 14.782500 -0.117844
-0.019913 14.782500 -0.117844
-0.014109 14.720500 -0.104264
-0.016348 14.814500 -0.104332
-0.015436 14.594500 -0.117707
-0.014773 14.657500 -0.110985
-0.018006 14.657000 -0.121136
-0.017923 14.971400 -0.097680
-0.019539 14.971200 -0.102755
-0.018918 14.877000 -0.107762
-0.014399 14.846200 -0.095896
-0.014399 14.846200 -0.095896
-0.016016 14.846000 -0.100972
-0.015352 14.909000 -0.094250
-0.024100 14.844700 -0.126349
-0.022815 14.813500 -0.124634
-0.022483 14.845000 -0.121274
-0.022152 14.876500 -0.117913
-0.004118 14.596300 -0.082178
-0.005403 14.627500 -0.083893
-0.010585 14.595300 -0.102480
-0.011829 14.783700 -0.092467
-0.011207 14.689500 -0.097474
0.024364 6.795120 -0.083581
0.012581 6.799260 -0.071045
0.012581 6.799260 -0.071045
-0.036061 6.779140 -0.061575
-0.019344 6.798060 -0.051173
0.037656 6.827630 -0.055442
0.030756 6.792770 0.022385
0.030756 6.792770 0.022385
0.042943 6.803410 -0.018775
0.019779 6.826440 -0.022326
0.019779 6.826440 -0.022326
-0.010683 6.698210 0.010110
0.040506 6.705690 -0.017416
0.006034 6.717130 0.020512
0.065582 6.734070 -0.001814
0.073940 6.743530 0.003387
0.025883 6.722770 0.013070
0.025883 6.722770 0.013070
0.108412 6.732090 -0.034541
0.088563 6.726450 -0.027099
0.050958 6.751150 0.028672
-0.006161 6.715140 -0.063932
-0.012351 6.709500 -0.043666
-0.012351 6.709500 -0.043666
-0.035611 6.732200 -0.047531
0.136619 6.767800 -0.188221
0.153142 6.786060 -0.178448
0.074839 6.766270 -0.149735
0.122252 6.785300 -0.159205
0.077891 6.752960 -0.166686
0.071787 6.779580 -0.132783
0.146707 6.767030 -0.130507
0.135392 6.771220 -0.118442
0.129476 6.766270 -0.098439
0.163937 6.767800 -0.162574
0.158539 6.776930 -0.170511
0.101969 6.797850 -0.110187
0.101969 6.797850 -0.110187
0.124597 6.789480 -0.134316
0.112764 6.779580 -0.094312
0.101361 6.675230 -0.096283
0.109622 6.684360 -0.091396
0.131981 6.676530 -0.116074
0.117884 6.693490 -0.086510
0.098443 6.688270 -0.079057
0.140243 6.685660 -0.111187
0.156766 6.703920 -0.101414
0.176207 6.709140 -0.108867
0.179125 6.696090 -0.126092
0.142670 6.720880 -0.071850
0.150931 6.730010 -0.066964
0.142670 6.720880 -0.071850
0.114967 6.706540 -0.069284
0.104682 6.686950 -0.193176
0.099285 6.696080 -0.201114
0.093080 6.690870 -0.181222
0.069875 6.698700 -0.157313
0.058273 6.702620 -0.145358
0.082285 6.709130 -0.197097
0.063670 6.693490 -0.137421
0.086875 6.685650 -0.161330
0.035875 6.724800 -0.149279
0.047478 6.720880 -0.161233
0.058273 6.702620 -0.145358
0.052875 6.711750 -0.153296
0.190376 6.726300 -0.271100
0.158946 6.725270 -0.250975
0.198812 6.769590 -0.227094
0.190839 6.760730 -0.231870
0.213398 6.729200 -0.176326
0.225126 6.725280 -0.188777
0.238057 6.735180 -0.229006
0.238057 6.735180 -0.229006
0.239260 6.748990 -0.256783
0.209338 6.751870 -0.211767
0.215804 6.756820 -0.231882
0.291719 6.671590 -0.235464
0.268217 6.678970 -0.209680
0.221213 6.693750 -0.158111
0.221213 6.693750 -0.158111
0.205266 6.676020 -0.167663
0.201811 6.671500 -0.320450
0.200128 6.657480 -0.292580
0.200128 6.657480 -0.292580
0.189602 6.675210 -0.307907
0.177394 6.678910 -0.295363
0.170448 6.673750 -0.275156
0.172345 6.636850 -0.211751
0.325947 6.720050 -0.374357
0.241590 6.678240 -0.362142
0.256577 6.695540 -0.352404
0.282841 6.688800 -0.380023
0.299682 6.726790 -0.346738
0.258431 6.716220 -0.328857
0.332860 6.629000 -0.318873
0.306434 6.635300 -0.290256
0.394977 6.645520 -0.347193
0.374271 6.640010 -0.337753
0.300715 6.647100 -0.271078
0.300715 6.647100 -0.271078
0.316808 6.650800 -0.451085
0.274776 6.623430 -0.345056
0.255799 6.635230 -0.338295
0.255799 6.635230 -0.338295
0.283183 6.628900 -0.366262
0.239942 6.661150 -0.359962
0.239942 6.661150 -0.359962
0.239942 6.661150 -0.359962
0.267326 6.654820 -0.387929
0.378649 6.687750 -0.453438
0.431802 6.641230 -0.555116
0.357848 6.662410 -0.468567
0.483160 6.654140 -0.453928
0.446430 6.675210 -0.439557
0.428065 6.685740 -0.432372
0.441064 6.683620 -0.446280
0.423529 6.656290 -0.377664
0.431163 6.662590 -0.398295
0.412798 6.673130 -0.391110
0.407761 6.603760 -0.410207
0.407761 6.603760 -0.410207
0.428562 6.629100 -0.395079
0.435162 6.618770 -0.414174
0.428562 6.629100 -0.395079
0.435162 6.618770 -0.414174
0.435162 6.618770 -0.414174
0.335866 6.639220 -0.458345
0.387199 6.616750 -0.487055
0.384397 6.601790 -0.459557
0.370863 6.603670 -0.445505
0.430364 6.587740 -0.494991
0.422196 6.581200 -0.474216
0.441095 6.570910 -0.481545
0.411464 6.598040 -0.487661
0.381594 6.586840 -0.432059
0.414028 6.574660 -0.453440
0.674177 6.639040 -0.775739
0.730472 6.621080 -0.853900
0.703441 6.622130 -0.826754
0.805079 6.621310 -0.782684
0.715249 6.639750 -0.709348
0.709909 6.647380 -0.714862
0.709909 6.647380 -0.714862
0.746973 6.631060 -0.731955
0.691378 6.655540 -0.706315
0.745259 6.562510 -0.783772
0.731923 6.562750 -0.769972
0.725770 6.609480 -0.697692
0.725770 6.609480 -0.697692
0.720128 6.601810 -0.702839
0.708843 6.586470 -0.713133
0.686273 6.555800 -0.733721
0.654234 6.601580 -0.766805
0.646238 6.594190 -0.747492
0.702265 6.570580 -0.772348
0.702265 6.570580 -0.772348
0.664913 6.586320 -0.755777
0.747612 6.562230 -0.808232
0.680933 6.563430 -0.739235
0.818754 6.645250 -0.904301
0.831983 6.644120 -0.918328
0.829751 6.660010 -0.894529
0.800026 6.639010 -0.895159
0.773568 6.641270 -0.867105
0.829751 6.660010 -0.894529
0.757073 6.619130 -0.881762
0.803293 6.662270 -0.866475
0.821361 6.634050 -0.821122
0.837499 6.646480 -0.859752
0.824270 6.647620 -0.845725
0.800722 6.663440 -0.842274
0.811041 6.648750 -0.831698
0.785122 6.561490 -0.825431
0.831153 6.604920 -0.810361
0.820156 6.590160 -0.820132
0.862732 6.610610 -0.833964
0.799025 6.580980 -0.892677
0.767172 6.590010 -0.870493
0.796892 6.602180 -0.922278
0.790838 6.574480 -0.873653
0.743506 6.605540 -0.867333
0.770199 6.603860 -0.894805
0.753825 6.590850 -0.856757
0.762012 6.597350 -0.875781
1.038690 6.593660 -1.173590
1.057350 6.588940 -1.183140
1.094670 6.579510 -1.202260
1.076010 6.584220 -1.192700
1.062210 6.582450 -1.178790
1.113330 6.574790 -1.211810
1.123050 6.561800 -1.203110
1.136850 6.563580 -1.217020
1.136850 6.563580 -1.217020
1.081650 6.556470 -1.161370
1.067860 6.554690 -1.147460
-0.149242 7.589270 0.016182
-0.034673 7.575960 0.040975
-0.023177 7.615850 0.003714
-0.016834 7.592210 0.027170
-0.020206 7.545050 -0.092949
-0.085871 7.567170 -0.050315
-0.065738 7.583400 -0.040259
-0.088504 7.602580 -0.013914
-0.173424 7.596660 0.006532
-0.151536 7.589280 -0.007680
-0.107760 7.574540 -0.036103
-0.023717 7.592260 -0.044415
-0.021111 7.458330 -0.032253
-0.021111 7.458330 -0.032253
-0.003471 7.474150 -0.046444
-0.027455 7.481970 -0.055709
-0.072251 7.485810 -0.062510
-0.072251 7.485810 -0.062510
-0.078594 7.509450 -0.085966
-0.099406 7.505460 -0.083503
-0.141031 7.497470 -0.078577
-0.120219 7.501460 -0.081040
-0.057782 7.513440 -0.088429
-0.059873 7.473970 0.042235
-0.062506 7.509380 0.078635
-0.061629 7.497580 0.066502
-0.018268 7.481920 0.038928
0.001657 7.497700 0.049408
-0.264963 7.539990 0.050666
-0.197703 7.530860 0.067163
-0.194323 7.519500 0.078466
-0.214602 7.587690 0.010646
-0.211222 7.576320 0.021950
-0.207842 7.564960 0.033253
-0.209222 7.530860 -0.048097
-0.229389 7.526330 -0.046060
-0.189055 7.535400 -0.050133
-0.251708 7.544520 -0.020526
-0.253860 7.567250 0.002971
-0.274027 7.562720 0.005007
-0.231541 7.549060 -0.022563
-0.314361 7.553640 0.009080
-0.253860 7.567250 0.002971
-0.233693 7.571790 0.000934
-0.233085 7.443390 -0.032815
-0.216206 7.458910 -0.046569
-0.195946 7.463060 -0.049019
-0.280363 7.457820 -0.050522
-0.199326 7.474420 -0.060322
-0.268120 7.469160 0.095544
-0.267044 7.457800 0.083795
-0.265968 7.446430 0.072047
-0.183452 7.451690 0.053693
-0.247760 7.473320 0.093892
-0.181300 7.428960 0.030196
-0.183452 7.451690 0.053693
-0.227400 7.477470 0.092241
-0.429498 7.506420 0.065733
-0.435872 7.528390 0.043897
-0.456694 7.524250 0.045916
-0.408676 7.510560 0.063713
-0.367032 7.518840 0.059675
-0.411863 7.521550 0.052795
-0.333463 7.479040 0.101328
-0.402303 7.488590 0.085549
-0.373406 7.540810 0.037839
-0.418237 7.543520 0.030959
-0.346210 7.522980 0.057656
-0.348884 7.479070 -0.054443
-0.370690 7.485910 -0.041089
-0.371674 7.496890 -0.029754
-0.457913 7.513280 0.012328
-0.459881 7.535240 0.034998
-0.457913 7.513280 0.012328
-0.396431 7.536680 0.017605
-0.396431 7.536680 0.017605
-0.325592 7.391200 0.010648
-0.374366 7.405560 -0.006268
-0.353166 7.409360 -0.008728
-0.457753 7.434120 0.110941
-0.391555 7.423640 0.083256
-0.393522 7.445600 0.105926
-0.345783 7.398350 0.045908
-0.346767 7.409330 0.057243
-0.368177 7.405500 0.058914
-0.350702 7.453250 0.102583
-0.543681 7.509170 0.053337
-0.599887 7.436210 0.121897
-0.647752 7.430250 0.125321
-0.629017 7.454570 0.102467
-0.525490 7.434470 0.127331
-0.530687 7.455810 0.106190
-0.533286 7.466480 0.095619
-0.575954 7.439180 0.120184
-0.683086 7.416980 -0.028630
-0.636988 7.444180 -0.011832
-0.613938 7.457780 -0.003434
-0.613938 7.457780 -0.003434
-0.520530 7.490880 0.008373
-0.541763 7.445350 -0.032708
-0.589072 7.439440 -0.027717
-0.565417 7.442400 -0.030213
-0.519319 7.469600 -0.013416
-0.601996 7.373770 0.015375
-0.596798 7.352430 0.036516
-0.580223 7.387080 0.002649
-0.499310 7.362970 0.027896
-0.523682 7.360330 0.030051
-0.571645 7.376330 0.077614
-0.570433 7.355040 0.055826
-0.547273 7.378960 0.075459
-0.620389 7.371060 0.081924
-0.596017 7.373690 0.079769
-0.497317 7.362940 0.049360
-0.521083 7.349660 0.040621
-0.521689 7.360310 0.051515
-0.498528 7.384230 0.071148
-0.546061 7.357670 0.053670
-0.729587 7.484310 0.069101
-0.749220 7.461840 0.090959
-0.725823 7.463610 0.089562
-0.766971 7.429020 0.123048
-0.766971 7.429020 0.123048
-0.856793 7.401260 0.149100
-0.856793 7.401260 0.149100
-0.858674 7.411620 0.138870
-0.776421 7.429370 0.001318
-0.799370 7.417320 -0.006950
-0.731021 7.484370 0.049206
-0.730689 7.463770 0.028304
-0.753804 7.462020 0.030487
-0.706907 7.424330 -0.015683
-0.776255 7.419070 -0.009133
-0.836064 7.333220 0.056458
-0.792329 7.356710 0.032337
-0.721082 7.360880 0.026847
-0.728608 7.402280 -0.014074
-0.704859 7.403680 -0.015904
-0.717319 7.340180 0.047307
-0.762935 7.327050 0.061197
-0.810434 7.324260 0.064858
-0.715603 7.340130 0.067988
-0.739353 7.338740 0.069818
-0.715770 7.350430 0.078439
-0.692187 7.362120 0.087060
-0.947021 7.437490 0.113918
-0.945773 7.427500 0.123795
-0.922663 7.408170 0.142572
-0.883933 7.429480 0.120868
-0.942028 7.397520 0.153425
-0.911387 7.418830 0.012712
-0.971107 7.445460 0.046794
-0.951014 7.446510 0.045452
-0.950827 7.456440 0.055471
-0.930920 7.447560 0.044111
-0.950827 7.456440 0.055471
-0.911014 7.438680 0.032750
-0.990827 7.464270 0.068173
-0.991014 7.454340 0.058154
-0.910267 7.478390 0.072826
-0.910454 7.468460 0.062807
-0.930547 7.467410 0.064148
-0.950640 7.466370 0.065490
-1.008710 7.328460 0.068898
-0.927354 7.349520 0.043526
-0.927354 7.349520 0.043526
-0.927354 7.349520 0.043526
-0.906390 7.349790 0.042122
-0.945822 7.329270 0.064685
-0.910135 7.379770 0.012491
-0.950815 7.369240 0.025177
-0.903894 7.329810 0.061876
-0.983814 7.366420 0.125320
-0.963201 7.367080 0.124344
-0.983255 7.396200 0.155376
-0.962828 7.386930 0.144382
-0.942401 7.377670 0.133387
-0.921975 7.368400 0.122393
-0.962828 7.386930 0.144382
-0.942215 7.387590 0.143406
-0.901548 7.359130 0.111399
-0.901735 7.349210 0.101380
-0.900802 7.398840 0.151474
-0.900989 7.388910 0.141455
-0.942215 7.387590 0.143406
-1.089830 7.442720 0.112638
-1.129470 7.423990 0.133548
-1.108920 7.423750 0.132604
-1.067830 7.423270 0.130715
-1.149290 7.414630 0.144003
-1.136900 7.405240 0.022093
-1.114730 7.433620 0.049112
-1.115810 7.414540 0.029932
-1.072550 7.452220 0.064789
-1.114190 7.443150 0.058702
-1.095790 7.404770 0.018591
-1.095790 7.404770 0.018591
-1.116880 7.395470 0.010752
-1.153820 7.321140 0.088443
-1.114960 7.358270 0.047657
-1.135120 7.349310 0.058539
-1.113510 7.339060 0.066678
-1.072460 7.347380 0.054424
-1.074650 7.376190 0.025891
-1.094810 7.367230 0.036774
-1.067590 7.366250 0.130905
-1.109900 7.358000 0.124059
-1.069740 7.328100 0.092546
-1.235110 7.452270 0.112376
-1.302880 7.409080 0.161950
-1.303680 7.427480 0.143687
-1.312350 7.409550 0.037167
-1.287210 7.426880 0.053367
-1.237800 7.452400 0.076606
-1.240420 7.425000 0.049120
-1.241530 7.361210 0.057762
-1.241930 7.370410 0.048630
-1.265400 7.371750 0.050358
-1.288470 7.363900 0.061216
-1.240740 7.342820 0.076024
-1.235580 7.370090 0.140098
-1.235580 7.370090 0.140098
-1.284260 7.354510 0.125229
-1.286010 7.336240 0.106904
-1.332950 7.338940 0.110359
-1.238200 7.342690 0.112611
-1.213850 7.350480 0.120046
-1.262540 7.334900 0.105176
-1.286010 7.336240 0.106904
-1.489920 7.450430 0.140856
-1.489920 7.450430 0.140856
-1.443510 7.449010 0.136743
-1.420620 7.457090 0.125952
-1.420940 7.465880 0.117217
-1.444150 7.466590 0.119274
-1.467360 7.467300 0.121330
-1.428920 7.413610 0.047297
-1.472050 7.441200 0.077632
-1.472050 7.441200 0.077632
-1.560510 7.478940 0.120821
-1.538390 7.469500 0.110023
-1.494170 7.450640 0.088429
-1.401340 7.447790 0.080204
-1.475690 7.372380 0.078874
-1.476010 7.381170 0.070139
-1.429230 7.378920 0.065183
-1.429230 7.378920 0.065183
-1.452620 7.380040 0.067661
-1.405840 7.377800 0.062705
-1.476980 7.407540 0.043934
-1.514960 7.383030 0.158367
-1.514960 7.383030 0.158367
-1.422010 7.378570 0.151739
-1.470670 7.363350 0.137572
-1.398770 7.377460 0.150083
-1.704650 7.477360 0.143344
-1.684450 7.476340 0.141322
-1.663660 7.458550 0.155970
-1.643460 7.457530 0.153948
-1.602170 7.430340 0.174910
-1.583420 7.471260 0.131212
-1.583420 7.471260 0.131212
-1.603340 7.463890 0.141569
-1.582840 7.454490 0.147883
-1.665810 7.475400 0.122646
-1.627950 7.456750 0.101964
-1.607750 7.455730 0.099942
-1.686020 7.476420 0.124667
-1.645610 7.474380 0.120624
-1.592470 7.371220 0.098001
-1.654730 7.400700 0.080353
-1.613810 7.397820 0.075448
-1.593060 7.388000 0.081331
-1.613810 7.397820 0.075448
-1.686470 7.403130 0.181162
-1.687750 7.394820 0.172843
-1.664690 7.410000 0.187833
-1.646740 7.391940 0.169547
-1.644180 7.408560 0.186185
-1.645460 7.400250 0.177866
-1.628780 7.373870 0.151261
-1.601890 7.413990 0.191207
-1.603170 7.405680 0.182888
-1.605720 7.389060 0.166250
-1.884860 7.502420 0.152035
-1.864940 7.492370 0.158142
-1.845030 7.474350 0.172211
-1.805170 7.470170 0.168501
-1.745370 7.479810 0.147014
-1.877240 7.447780 0.097536
-1.855520 7.453130 0.103140
-1.812070 7.463830 0.114350
-1.790340 7.469180 0.119954
-1.796470 7.437640 0.088401
-1.777870 7.379450 0.125999
-1.818250 7.392480 0.122604
-1.798040 7.405870 0.104397
-1.818210 7.424320 0.090758
-1.858580 7.437360 0.087364
-1.858610 7.413470 0.111249
-1.757630 7.416720 0.083907
-1.777830 7.411290 0.094152
-1.777840 7.403330 0.102114
-1.812310 7.409450 0.184875
-1.772330 7.395540 0.173123
-1.903010 7.382060 0.153161
-1.880720 7.386930 0.159118
-1.859960 7.383920 0.157186
-1.819980 7.370020 0.145434
-1.819980 7.370020 0.145434
-2.062050 7.532200 0.164867
-2.062630 7.524720 0.172477
-1.974490 7.486430 0.189033
-1.951450 7.489960 0.179855
-1.995230 7.512850 0.167772
-1.973340 7.501410 0.173814
-1.972760 7.508890 0.166204
-1.930140 7.471040 0.193507
-1.952600 7.474990 0.195075
-1.952600 7.474990 0.195075
-1.928410 7.493490 0.170678
-2.077610 7.475790 0.108093
-2.077610 7.475790 0.108093
-1.936410 7.471700 0.118576
-1.934610 7.479140 0.126035
-1.978090 7.495390 0.137459
-1.941800 7.449360 0.096198
-1.962640 7.461210 0.105639
-1.945830 7.396960 0.149466
-1.944680 7.411930 0.134246
-1.945250 7.404440 0.141856
-1.944680 7.411930 0.134246
-1.989370 7.428230 0.130602
-1.966160 7.431310 0.121009
-2.078190 7.468300 0.115702
-2.033490 7.452010 0.119347
-1.965010 7.446280 0.105790
-1.961430 7.432170 0.195638
-1.986540 7.429670 0.189802
-1.991930 7.407340 0.167424
-2.061890 7.422170 0.172296
-2.038570 7.417220 0.170672
-1.943500 7.404900 0.171636
-1.993730 7.399900 0.159965
-2.176860 7.537590 0.190601
-2.132580 7.526450 0.189395
-2.174340 7.551490 0.176099
-2.153460 7.538970 0.182747
-2.112960 7.506990 0.203294
-2.090820 7.501420 0.202691
-2.155980 7.525080 0.197249
-2.109180 7.527830 0.181540
-2.138630 7.512320 0.132417
-2.197180 7.557010 0.162406
-2.108630 7.534730 0.159993
-2.131340 7.437580 0.161839
-2.172100 7.470480 0.142098
-2.193100 7.483460 0.135853
-2.212850 7.503380 0.122357
-2.123780 7.479270 0.118332
-2.125040 7.472320 0.125584
-2.212580 7.497390 0.211437
-2.212580 7.497390 0.211437
-2.166960 7.485070 0.211004
-2.150050 7.457920 0.189652
-2.170890 7.471080 0.196914
-2.117410 7.486740 0.224661
-2.096570 7.473580 0.217399
-2.119380 7.479740 0.217616
-2.121340 7.472740 0.210571
-2.286910 7.568560 0.191229
-2.286910 7.568560 0.191229
-2.292700 7.549500 0.211822
-2.314120 7.550060 0.218061
-2.295490 7.541350 0.124549
-2.293400 7.547890 0.131191
-2.272110 7.548030 0.138051
-2.289210 7.560960 0.144475
-2.306300 7.573900 0.150900
-2.289210 7.560960 0.144475
-2.361790 7.599640 0.156889
-2.282920 7.580580 0.164401
-2.388170 7.527300 0.158164
-2.366600 7.526250 0.151529
-2.345030 7.525200 0.144894
-2.307690 7.504040 0.152218
-2.307690 7.504040 0.152218
-2.299960 7.529460 0.124760
-2.301900 7.523110 0.131624
-2.343100 7.531560 0.138030
-2.396080 7.564840 0.215780
-2.378690 7.551380 0.209764
-2.361300 7.537930 0.203748
-2.341820 7.531010 0.204374
-2.304940 7.510640 0.198983
-2.304940 7.510640 0.198983
-2.291740 7.484110 0.179683
-2.309130 7.497560 0.185699
-2.307040 7.504100 0.192341
-2.279170 7.523330 0.219535
-2.459820 7.629450 0.188190
-2.521220 7.640370 0.200055
-2.430740 7.591050 0.214715
-2.449720 7.598580 0.214365
-2.468710 7.606110 0.214016
-2.445810 7.609340 0.138753
-2.452560 7.591190 0.120015
-2.448060 7.603290 0.132507
-2.445810 7.609340 0.138753
-2.461150 7.568150 0.145429
-2.506010 7.566650 0.164899
-2.458930 7.573990 0.138973
-2.448720 7.542630 0.164749
-2.467820 7.550640 0.164799
-2.458800 7.575060 0.202484
-2.477900 7.583070 0.202534
-2.501490 7.578970 0.190092
-2.505980 7.566870 0.177601
-2.584610 7.592850 0.171555
-2.563270 7.590900 0.177751
-2.541930 7.588940 0.183947
-2.520580 7.586980 0.190142
-2.505980 7.566870 0.177601
-2.486890 7.558860 0.177551
-2.505980 7.566870 0.177601
-2.618310 7.689290 0.190203
-2.639860 7.697400 0.191230
-2.618310 7.689290 0.190203
-2.598690 7.675660 0.195222
-2.645640 7.680830 0.209365
-2.643720 7.686350 0.203320
-2.645640 7.680830 0.209365
-2.622170 7.678240 0.202293
-2.735700 7.702210 0.225560
-2.690670 7.691520 0.217462
-2.712220 7.699630 0.218489
-2.582920 7.650970 0.212331
-2.626020 7.667190 0.214383
-2.625430 7.677580 0.143712
-2.638100 7.707770 0.168561
-2.600970 7.675260 0.148095
-2.620710 7.688720 0.155405
-2.620710 7.688720 0.155405
-2.688220 7.640660 0.171307
-2.645000 7.623520 0.168433
-2.666610 7.632090 0.169870
-2.621470 7.620480 0.160952
-2.697310 7.674850 0.211815
-2.658930 7.647480 0.198069
-2.673410 7.672310 0.216635
-2.654210 7.658630 0.209762
-2.601350 7.606430 0.177451
-2.587210 7.639870 0.212530
-2.608760 7.647980 0.213556
-2.630310 7.656090 0.214582
-2.611110 7.642410 0.207709
-2.901840 7.799130 0.208162
-2.835750 7.777010 0.199236
-2.816470 7.759010 0.207475
-2.794440 7.751630 0.204500
-2.776530 7.728320 0.218346
-2.819220 7.748390 0.218690
-2.817180 7.764710 0.179780
-2.902880 7.799330 0.197118
-2.856400 7.789690 0.196603
-2.748670 7.747700 0.176290
-2.773120 7.749960 0.173829
-2.773120 7.749960 0.173829
-2.816660 7.701020 0.173079
-2.772470 7.685350 0.166276
-2.834630 7.724780 0.159658
-2.878810 7.740450 0.166461
-2.789060 7.714430 0.147247
-2.769720 7.695970 0.155060
-2.831880 7.735410 0.148443
-2.889280 7.751070 0.236301
-2.846080 7.735780 0.231251
-2.850910 7.725550 0.220379
-2.807710 7.710270 0.215328
-2.788520 7.697510 0.207367
-2.790940 7.692400 0.201931
-2.790940 7.692400 0.201931
-2.834140 7.707680 0.206981
-3.338920 7.943000 0.299377
-3.338290 7.947310 0.295058
-3.254370 7.896250 0.298924
-3.326080 7.926250 0.266834
-3.347550 7.933950 0.271638
-3.252560 7.918610 0.269191
-3.333540 7.910350 0.258578
-3.376480 7.925750 0.268185
-3.334800 7.901720 0.267215
-3.334800 7.901720 0.267215
-3.355640 7.913730 0.267700
-3.269120 7.887250 0.244168
-3.269750 7.882940 0.248487
-3.290590 7.894950 0.248971
-3.257630 7.884510 0.303356
-3.264450 7.872930 0.290781
-3.309720 7.885320 0.295427
-3.331210 7.893450 0.299846
-3.288220 7.877190 0.291008
-3.264450 7.872930 0.290781
-3.402520 7.906240 0.300527
-3.378750 7.901980 0.300300
-3.378750 7.901980 0.300300
-3.266730 7.869060 0.286589
0.946086 8.100960 0.750004
0.953280 8.089180 0.740737
0.953280 8.089180 0.740737
0.794681 8.155600 0.702654
0.801875 8.143820 0.693388
0.801875 8.143820 0.693388
0.830650 8.096710 0.656321
0.816262 8.120270 0.674855
0.911748 8.143420 0.633204
0.893216 8.143240 0.617488
0.852155 8.107870 0.629003
0.904238 8.131690 0.642280
0.975935 8.258300 0.744229
1.001700 8.248280 0.751119
1.008990 8.237020 0.742594
1.053240 8.228240 0.764899
1.045950 8.239490 0.773425
1.060520 8.216980 0.756373
1.042040 8.215750 0.740958
1.042040 8.215750 0.740958
1.156310 8.188160 0.792458
1.104770 8.208200 0.778679
1.112060 8.196940 0.770153
1.097490 8.219450 0.787204
1.104770 8.208200 0.778679
1.079000 8.218220 0.771789
1.048420 8.250650 0.845232
1.022940 8.238740 0.839302
0.948243 8.235930 0.779681
1.046810 8.132540 0.858637
0.989122 8.127200 0.812612
0.962606 8.136680 0.805796
1.022920 8.106480 0.810902
0.993780 8.151480 0.845005
0.991749 8.091670 0.771693
1.112540 8.174490 0.770603
1.011410 8.124740 0.744841
1.057100 8.170790 0.724356
1.025010 8.147150 0.726891
1.450560 8.299000 1.114600
1.434640 8.287180 1.091100
1.418710 8.275360 1.067590
1.357740 8.260330 1.012540
1.341820 8.248510 0.989038
1.357740 8.260330 1.012540
1.310950 8.240420 1.079450
1.288430 8.238820 1.063680
1.321750 8.260640 1.061970
1.321750 8.260640 1.061970
1.355070 8.282460 1.060260
1.377590 8.284070 1.076030
1.400120 8.285680 1.091800
1.377590 8.284070 1.076030
1.405510 8.295790 1.083060
1.310010 8.279250 1.028720
1.299220 8.259030 1.046200
1.360460 8.292570 1.051520
1.355070 8.282460 1.060260
1.472240 8.208600 1.047230
1.450250 8.206490 1.031200
1.373480 8.179940 1.000600
1.373480 8.179940 1.000600
1.400870 8.192160 1.007890
1.362690 8.159730 1.018080
1.340300 8.195940 0.951064
1.362290 8.198050 0.967092
1.384280 8.200160 0.983119
1.585440 8.289820 1.180940
1.579380 8.299530 1.188420
1.559330 8.297810 1.175320
1.551420 8.276660 1.147250
1.531370 8.274930 1.134150
1.545350 8.286370 1.154730
1.493130 8.302330 1.143480
1.479150 8.290900 1.122900
1.469220 8.254540 1.186140
1.469220 8.254540 1.186140
1.528440 8.296230 1.178220
1.563750 8.290130 1.212960
1.458740 8.271930 1.155970
1.528440 8.296230 1.178220
1.506560 8.180170 1.187050
1.485860 8.177880 1.174140
1.473730 8.197300 1.189100
1.565100 8.228180 1.268610
1.544400 8.225890 1.255700
1.455530 8.226430 1.211540
1.440900 8.214430 1.191150
1.461600 8.216720 1.204060
1.656030 8.229270 1.174410
1.586810 8.203340 1.150620
1.596370 8.222450 1.133550
1.541500 8.225200 1.084160
1.556600 8.217910 1.106310
1.576490 8.220180 1.119930
1.531940 8.206080 1.101230
1.776880 8.326680 1.318240
1.676720 8.280820 1.220210
1.717940 8.317500 1.279670
1.674790 8.250270 1.186460
1.682620 8.271660 1.213250
1.659000 8.308320 1.241110
1.639350 8.305260 1.228250
1.651160 8.286930 1.214320
1.726030 8.273320 1.369310
1.705790 8.269680 1.356680
1.714040 8.287670 1.340010
1.685540 8.266040 1.344060
1.641310 8.291090 1.272850
1.621070 8.287450 1.260220
1.677680 8.289380 1.306430
1.624810 8.255110 1.306190
1.670460 8.203930 1.292330
1.684800 8.216740 1.311920
1.678890 8.225910 1.318880
1.748060 8.258800 1.383300
1.687320 8.247880 1.345430
1.638400 8.218620 1.293640
1.638400 8.218620 1.293640
1.709350 8.222680 1.231350
1.684710 8.209410 1.226270
1.688830 8.218400 1.217930
1.676460 8.191420 1.242940
1.660070 8.196130 1.221180
1.910430 8.350030 1.401300
1.873630 8.330230 1.364910
1.830640 8.318960 1.334680
1.821500 8.296270 1.307240
1.843000 8.301900 1.322360
1.824470 8.327490 1.340850
1.855100 8.355810 1.383400
1.882830 8.327950 1.452630
1.816920 8.309290 1.408200
1.794950 8.303070 1.393390
1.794950 8.303070 1.393390
1.816920 8.309290 1.408200
1.831840 8.298680 1.439220
1.828310 8.290270 1.447320
1.805630 8.211910 1.359740
1.878430 8.294180 1.470780
1.884600 8.285650 1.464620
1.796720 8.260770 1.405370
1.834480 8.281740 1.441160
1.874180 8.259360 1.344520
1.882430 8.232670 1.392650
1.837700 8.218750 1.361200
2.044080 8.386260 1.493120
2.057220 8.370680 1.482630
2.063800 8.362890 1.477380
2.132180 8.380750 1.522030
2.132180 8.380750 1.522030
2.098430 8.387780 1.515890
2.070370 8.355100 1.472130
1.987950 8.360370 1.529480
1.970680 8.360440 1.505920
2.011320 8.375960 1.537430
2.040790 8.407200 1.529780
2.061110 8.414960 1.545530
2.061110 8.414960 1.545530
2.061110 8.414960 1.545530
2.000150 8.391680 1.498270
2.082860 8.320410 1.571530
2.034180 8.309890 1.544120
1.978930 8.307150 1.521960
1.985500 8.299360 1.516710
2.021040 8.325470 1.554620
2.159350 8.381510 1.533420
2.070840 8.331650 1.482490
2.026590 8.306730 1.457020
2.035740 8.330210 1.433620
2.032690 8.322380 1.441420
2.073890 8.339480 1.474690
2.169440 8.427510 1.582360
2.206910 8.415950 1.584110
2.193840 8.442360 1.706900
2.181650 8.447440 1.678020
2.164270 8.438070 1.664130
2.169470 8.452510 1.649140
2.121700 8.397680 1.658840
2.121700 8.397680 1.658840
2.280470 8.402780 1.711740
2.256280 8.399710 1.701580
2.135360 8.384380 1.650750
2.176490 8.342370 1.624550
2.152300 8.339300 1.614390
2.177350 8.382840 1.557550
2.224140 8.398610 1.616140
2.224140 8.398610 1.616140
2.216350 8.376950 1.638620
2.211150 8.362510 1.653620
2.290810 8.513780 1.705610
2.290810 8.513780 1.705610
2.281180 8.497090 1.687410
2.350890 8.509370 1.719670
2.327660 8.505280 1.708920
2.357700 8.503070 1.715940
2.350890 8.509370 1.719670
2.318020 8.488580 1.690720
2.294780 8.484490 1.679970
2.318950 8.525070 1.789710
2.318950 8.525070 1.789710
2.331860 8.522390 1.817880
2.318950 8.525070 1.789710
2.301690 8.514550 1.775910
2.284430 8.504040 1.762110
2.273690 8.513310 1.726750
2.254250 8.496210 1.720140
2.288770 8.517230 1.747740
2.262820 8.480350 1.762680
2.249910 8.483020 1.734500
2.367990 8.480320 1.804100
2.334470 8.458370 1.775950
2.310910 8.453700 1.765600
2.358030 8.463050 1.786300
2.341270 8.452070 1.772230
2.273750 8.461620 1.762690
2.287350 8.449020 1.755240
2.300950 8.436420 1.747790
2.324510 8.441100 1.758150
2.348070 8.445770 1.768500
2.327600 8.463380 1.697240
2.358940 8.478740 1.732580
2.337840 8.454580 1.732870
2.400520 8.485290 1.803550
2.385940 8.480910 1.782290
2.385940 8.480910 1.782290
2.318900 8.437010 1.725980
2.333490 8.441390 1.747240
2.434500 8.589420 1.817480
2.479440 8.606600 1.845330
2.492040 8.594930 1.838430
2.581910 8.629280 1.894120
2.517660 8.600600 1.850630
2.440380 8.554580 1.788040
2.453400 8.571920 1.807140
2.459700 8.566080 1.803690
2.427780 8.566250 1.794940
2.504640 8.583260 1.831530
2.383320 8.553340 1.859690
2.427070 8.587690 1.877180
2.427070 8.587690 1.877180
2.430780 8.599710 1.863600
2.394430 8.589410 1.818970
2.414450 8.600570 1.834500
2.456360 8.628900 1.858770
2.456360 8.628900 1.858770
2.517140 8.572560 1.921740
2.523440 8.566730 1.918290
2.491260 8.566350 1.909990
2.400360 8.529830 1.856130
2.439510 8.553920 1.886510
2.432540 8.530200 1.864420
2.518400 8.576730 1.867540
2.543280 8.606270 1.862830
2.479760 8.553720 1.836250
2.433720 8.506660 1.832100
2.454890 8.524180 1.840960
2.437420 8.518690 1.818530
2.502790 8.577250 1.838320
2.659800 8.738710 2.009890
2.614590 8.689840 1.955810
2.616300 8.657080 1.927790
2.605110 8.668060 1.934460
2.603410 8.700820 1.962480
2.612090 8.695240 2.005830
2.659800 8.738710 2.009890
2.634350 8.711500 2.014190
2.575560 8.690040 1.957450
2.577150 8.695510 1.951120
2.575560 8.690040 1.957450
2.596220 8.700840 1.972140
2.575560 8.690040 1.957450
2.596220 8.700840 1.972140
2.551700 8.668310 1.955420
2.587030 8.630350 1.987980
2.674930 8.703560 2.069190
2.570250 8.646820 1.997980
2.606530 8.675010 2.029800
2.636540 8.646790 1.958530
2.679820 8.680120 1.975640
2.613300 8.624650 1.956300
2.837400 8.824220 2.124570
2.823940 8.809430 2.109140
2.818960 8.814520 2.112280
2.792040 8.784940 2.081420
2.773600 8.775240 2.069130
2.782080 8.795120 2.087700
2.782080 8.795120 2.087700
2.789880 8.787420 2.130590
2.789880 8.787420 2.130590
2.771200 8.777190 2.118790
2.732530 8.751820 2.101050
2.749880 8.757130 2.118740
2.733850 8.756740 2.095170
2.759750 8.711450 2.093980
2.736100 8.706310 2.085310
2.800840 8.757400 2.138820
2.846910 8.798260 2.180520
2.846910 8.798260 2.180520
2.814540 8.772710 2.153760
2.790890 8.767570 2.145090
2.809560 8.777800 2.156900
2.814540 8.772710 2.153760
2.814540 8.772710 2.153760
2.716190 8.726660 2.097870
2.739840 8.731800 2.106530
2.793970 8.737010 2.070650
2.812130 8.747700 2.082730
2.809490 8.737860 2.094490
2.844490 8.754320 2.124530
2.806840 8.728020 2.106250
3.003980 8.913010 2.233660
2.948170 8.883470 2.197550
2.948170 8.883470 2.197550
2.914700 8.830790 2.147110
2.910230 8.835410 2.149980
2.887900 8.858560 2.164320
2.892370 8.853930 2.161450
2.882700 8.834830 2.143680
2.938780 8.868000 2.225180
2.956420 8.873920 2.242060
2.921140 8.862080 2.208310
2.883680 8.841460 2.185350
2.880420 8.828280 2.201540
2.863870 8.826750 2.179270
2.901670 8.800750 2.192600
2.897200 8.805370 2.195470
2.911460 8.820320 2.209810
2.892740 8.810000 2.198340
2.911460 8.820320 2.209810
2.991700 8.885770 2.275800
2.977440 8.870820 2.261460
2.977440 8.870820 2.261460
2.954250 8.865140 2.252850
2.967650 8.851250 2.244250
2.921260 8.839890 2.227030
2.902530 8.829570 2.215550
2.921110 8.813690 2.151910
2.920030 8.809300 2.157310
2.938280 8.820100 2.169080
2.918940 8.804910 2.162710
2.972620 8.832900 2.203430
2.917850 8.800520 2.168100
3.006960 8.845710 2.237770
2.988700 8.834910 2.225990
3.006960 8.845710 2.237770
2.990880 8.843700 2.215200
2.915680 8.791730 2.178900
3.169570 9.001660 2.343070
3.148500 8.990470 2.329200
3.085310 8.956900 2.287600
3.046070 8.898450 2.230560
3.063140 8.913790 2.247000
3.063140 8.913790 2.247000
3.059150 8.917940 2.249570
3.101280 8.940320 2.277310
3.064240 8.945710 2.273730
3.047170 8.930380 2.257290
3.015230 8.915710 2.263080
3.031560 8.907700 2.300550
3.034440 8.919470 2.286030
3.093780 8.910200 2.314240
3.106920 8.930120 2.332650
3.098930 8.938410 2.337790
3.120060 8.950030 2.351060
3.043540 8.895260 2.292840
3.022410 8.883640 2.279570
3.056680 8.915170 2.311250
3.108260 8.914950 2.288100
3.127980 8.923140 2.306520
3.086620 8.898910 2.279360
3.147700 8.931330 2.324950
