ply
format ascii 1.0
comment VCGLIB generated
element vertex 1701
property float x
property float y
property float z
element face 0
property list uchar int vertex_indices
end_header
-0.0688643 4.26925 -0.0950722
-0.0693336 4.27769 -0.0963825
-0.0705837 4.30275 -0.102033
-0.0659398 4.30852 -0.0960125
-0.0614314 4.2585 -0.0838578
-0.0641112 4.30471 -0.0932899
-0.0640304 4.29621 -0.0920532
-0.0589865 4.33894 -0.0997841
-0.0593918 4.32202 -0.0963713
-0.057435 4.28416 -0.0884606
-0.0560008 4.29692 -0.0909288
-0.055653 4.29695 -0.0909007
-0.054725 4.26324 -0.0839345
-0.043041 4.2629 -0.089848
-0.0440489 4.25881 -0.0878434
-0.0479918 4.28834 -0.0927223
-0.0497315 4.29683 -0.093606
-0.0506014 4.30107 -0.0940479
-0.0508045 4.29691 -0.092713
-0.054276 4.33057 -0.09915
-0.0405962 4.25309 -0.0971729
-0.0447446 4.29561 -0.102517
-0.0424188 4.26686 -0.0924834
-0.0477883 4.28091 -0.110797
-0.0467839 4.28977 -0.110241
-0.0502057 4.35345 -0.11896
-0.0489711 4.32794 -0.11563
-0.0470692 4.31981 -0.112767
-0.0481319 4.32385 -0.11433
-0.0497519 4.31914 -0.115923
-0.0416904 4.25232 -0.101432
-0.0448853 4.29885 -0.108633
-0.0651726 4.38051 -0.131062
-0.0646159 4.38056 -0.13102
-0.0676237 4.43956 -0.142197
-0.0653969 4.43977 -0.142028
-0.0693982 4.4775 -0.149371
-0.0625168 4.39347 -0.133207
-0.0646972 4.44407 -0.142757
-0.0641559 4.42719 -0.139588
-0.0778889 4.45216 -0.14087
-0.0760146 4.44366 -0.140238
-0.0770904 4.44375 -0.139344
-0.0693491 4.38469 -0.130453
-0.0727584 4.41835 -0.136377
-0.0773676 4.43543 -0.136924
-0.072653 4.38914 -0.128801
-0.0738197 4.40593 -0.13221
-0.0833704 4.50809 -0.144596
-0.0815547 4.48278 -0.140171
-0.0783383 4.43659 -0.130871
-0.0778196 4.42833 -0.128483
-0.0744471 4.38542 -0.124763
-0.0756143 4.40221 -0.128169
-0.0782833 4.48415 -0.134824
-0.0754001 4.43375 -0.124413
-0.0747824 4.44678 -0.125451
-0.0749608 4.44672 -0.125659
-0.0738898 4.39148 -0.116781
-0.0745488 4.39982 -0.118725
-0.074137 4.4085 -0.119417
-0.0703204 4.39261 -0.112606
-0.0719405 4.41775 -0.118021
-0.071291 4.48932 -0.133877
-0.0703693 4.44737 -0.124337
-0.0671875 4.44347 -0.123148
-0.0656275 4.38898 -0.110717
-0.0647158 4.40588 -0.114436
-0.0574766 4.40571 -0.11818
-0.0613089 4.43908 -0.125463
-0.0645367 4.43937 -0.12278
-0.0711574 4.5019 -0.136903
-0.0603061 4.40182 -0.11452
-0.0552014 4.40474 -0.123859
-0.0599136 4.41526 -0.13516
-0.0603948 4.42809 -0.136712
-0.0655011 4.50003 -0.14829
-0.0779493 4.52442 -0.15874
-0.0806915 4.58687 -0.169906
-0.0771224 4.5631 -0.165422
-0.0750215 4.54401 -0.161892
-0.0754405 4.54397 -0.161924
-0.0750158 4.52471 -0.158519
-0.0839225 4.55811 -0.162738
-0.0842212 4.56289 -0.163652
-0.0824289 4.53417 -0.158167
-0.083001 4.5485 -0.161179
-0.0801862 4.52921 -0.158869
-0.0806722 4.52925 -0.158465
-0.081867 4.5484 -0.162122
-0.0855425 4.55825 -0.161391
-0.0930023 4.66438 -0.176787
-0.0887171 4.59718 -0.165111
-0.0880741 4.58751 -0.163767
-0.0869057 4.56843 -0.159842
-0.0860882 4.55423 -0.15628
-0.0883092 4.588 -0.161293
-0.0850437 4.58424 -0.156373
-0.0801402 4.52262 -0.142328
-0.0837054 4.63713 -0.166601
-0.0760357 4.5422 -0.145897
-0.0780433 4.57071 -0.152086
-0.072314 4.54678 -0.149413
-0.0700482 4.52774 -0.145805
-0.0702918 4.52306 -0.144229
-0.0699678 4.52303 -0.144499
-0.0771698 4.58487 -0.156361
-0.0743375 4.56108 -0.15185
-0.0841282 4.65141 -0.169799
-0.0793541 4.60861 -0.16141
-0.0744217 4.53755 -0.144916
-0.0695989 4.54089 -0.154856
-0.0705337 4.55043 -0.156635
-0.0678076 4.52197 -0.150472
-0.0767963 4.61283 -0.16624
-0.0754627 4.59866 -0.162849
-0.0719767 4.52508 -0.157945
-0.0715623 4.53505 -0.158227
-0.0775747 4.61667 -0.171763
0.0118786 0.87356 -0.0568836
-0.0131367 0.872506 -0.0366607
0.0352091 0.883597 -0.0498912
-0.00451781 0.891657 -0.0207869
0.00275663 0.892859 -0.0203862
0.0453374 0.870864 -0.0236992
0.0110774 0.833764 -0.0456978
-0.0103996 0.838973 -0.0183831
-0.0137173 0.839017 -0.00922556
0.0301766 0.867693 -0.0750709
0.0568109 0.874073 -0.0758514
0.0609342 0.87358 -0.0594016
0.0807259 0.867086 -0.0873661
0.0549339 0.877284 -0.0663833
0.0554601 0.876244 -0.0593969
0.0861662 0.854177 -0.0657838
0.0710893 0.835693 -0.0500381
0.0728604 0.839525 -0.0495269
0.0592998 0.827855 -0.046707
0.0671404 0.827058 -0.0512254
0.0477884 0.822556 -0.0809435
0.0496702 0.840965 -0.103321
0.0388273 0.837257 -0.0879803
0.0796809 0.847817 -0.125932
0.122042 0.822524 -0.103018
0.117131 0.826714 -0.0962186
0.11477 0.808041 -0.112759
0.117678 0.809553 -0.110396
0.103049 0.808065 -0.143739
0.0887787 0.8112 -0.125947
0.0832342 0.812353 -0.118642
0.0905931 0.822847 -0.140114
0.0726401 0.822051 -0.118729
0.169259 0.829916 -0.213026
0.162376 0.831239 -0.206173
0.134927 0.82772 -0.18363
0.138368 0.827059 -0.187057
0.154851 0.844187 -0.174511
0.201727 0.831455 -0.195193
0.177157 0.829266 -0.163424
0.156269 0.837876 -0.144295
0.163158 0.835394 -0.15083
0.179379 0.789488 -0.19785
0.169899 0.791992 -0.193215
0.165161 0.791608 -0.18331
0.156878 0.814367 -0.209182
0.183271 0.827857 -0.226774
0.189893 0.826383 -0.233754
0.223786 0.811055 -0.273834
0.214436 0.814933 -0.262974
0.202514 0.835782 -0.215122
0.211701 0.830286 -0.2054
0.245866 0.815017 -0.231248
0.209998 0.826806 -0.200117
0.210265 0.825697 -0.199728
0.224452 0.821647 -0.212414
0.21808 0.805548 -0.203695
0.227991 0.80408 -0.214487
0.211926 0.797894 -0.202006
0.201444 0.793416 -0.198037
0.187004 0.789707 -0.211929
0.180796 0.800172 -0.226222
0.274383 0.812902 -0.32115
0.259391 0.814188 -0.306018
0.247981 0.830478 -0.274933
0.268067 0.828623 -0.302483
0.253733 0.833044 -0.269022
0.293268 0.812344 -0.277681
0.283377 0.814999 -0.269505
0.292663 0.796464 -0.285241
0.267039 0.800696 -0.255892
0.267941 0.788767 -0.279789
0.253552 0.788333 -0.275756
0.24546 0.793085 -0.283979
0.234772 0.805622 -0.282532
0.250392 0.796069 -0.291271
0.305521 0.817671 -0.349669
0.311638 0.818308 -0.355515
0.324263 0.80537 -0.313925
0.321763 0.806946 -0.310192
0.287614 0.799822 -0.326936
0.331758 0.827352 -0.370667
0.336881 0.832542 -0.37196
0.363826 0.838886 -0.379425
0.38171 0.8204 -0.370895
0.364675 0.82075 -0.353124
0.366371 0.808415 -0.359313
0.34975 0.79779 -0.362757
0.37469 0.806535 -0.411127
0.34331 0.80646 -0.381468
0.419885 0.832221 -0.46647
0.401114 0.832181 -0.444315
0.395577 0.834728 -0.43617
0.394615 0.840211 -0.417422
0.410197 0.840112 -0.436323
0.437667 0.84068 -0.464301
0.411969 0.812833 -0.41011
0.428244 0.81661 -0.428406
0.4315 0.809237 -0.43855
0.434553 0.809374 -0.442358
0.418962 0.807472 -0.455029
0.413919 0.808378 -0.45304
0.405293 0.807622 -0.441536
0.454341 0.834259 -0.507974
0.457282 0.837954 -0.5003
0.449663 0.838301 -0.489937
0.486931 0.835653 -0.515502
0.461963 0.837733 -0.485873
0.484069 0.834087 -0.506838
0.48788 0.82305 -0.504137
0.462251 0.819666 -0.523653
0.452602 0.817405 -0.509471
0.449992 0.817428 -0.506076
0.447118 0.818234 -0.502882
0.443189 0.822176 -0.50049
0.495075 0.830679 -0.562894
0.490676 0.833352 -0.555483
0.498262 0.816427 -0.52349
0.501664 0.819489 -0.526135
0.499232 0.811607 -0.528219
0.504629 0.81072 -0.562222
0.504076 0.824645 -0.578444
0.495233 0.818187 -0.563603
0.543178 0.838886 -0.616371
0.518802 0.830112 -0.593738
0.535547 0.833764 -0.610779
0.529915 0.836487 -0.602563
0.526405 0.838195 -0.59255
0.540893 0.832759 -0.580841
0.542357 0.814658 -0.594564
0.53691 0.813747 -0.586627
0.54284 0.814931 -0.594122
0.539633 0.814202 -0.590595
0.566306 0.819291 -0.625645
0.533892 0.813708 -0.595762
0.519858 0.819672 -0.594072
0.576519 0.843346 -0.651539
0.587189 0.844104 -0.661769
0.578214 0.848623 -0.640997
0.611591 0.858043 -0.674239
0.604522 0.856656 -0.659906
0.627368 0.851329 -0.665299
0.628354 0.849004 -0.664923
0.612545 0.848956 -0.653638
0.592531 0.840165 -0.635302
0.603071 0.832478 -0.64785
0.596373 0.832265 -0.640748
0.588382 0.825606 -0.644097
0.607687 0.836124 -0.671761
0.585707 0.824913 -0.64717
0.64852 0.867111 -0.70738
0.655274 0.86761 -0.713129
0.658662 0.868106 -0.715863
0.641525 0.860706 -0.705016
0.653957 0.862316 -0.687172
0.657947 0.862252 -0.68926
0.66665 0.856522 -0.703764
0.661575 0.856898 -0.710515
0.643653 0.846007 -0.694791
0.641097 0.847597 -0.697384
0.646094 0.859432 -0.70723
0.658286 0.860013 -0.713296
0.720022 0.896654 -0.753361
0.692817 0.883894 -0.736826
0.699649 0.88625 -0.741499
0.703696 0.894421 -0.738034
0.706482 0.895506 -0.741419
0.70611 0.892395 -0.72745
0.69871 0.889757 -0.723757
0.719967 0.902035 -0.741651
0.724448 0.887084 -0.736907
0.714522 0.881646 -0.730595
0.73721 0.895448 -0.761507
0.727722 0.890068 -0.754623
0.694342 0.873285 -0.733553
0.711482 0.887552 -0.74767
0.751422 0.912603 -0.772811
0.780797 0.923097 -0.795649
0.76676 0.921864 -0.781041
0.782066 0.921319 -0.778326
0.767613 0.91486 -0.76682
0.775433 0.916963 -0.772463
0.76297 0.903351 -0.771432
0.744299 0.90624 -0.769222
0.745091 0.904738 -0.769076
0.816774 0.941007 -0.822598
0.829456 0.946909 -0.828482
0.804682 0.937732 -0.807141
0.831423 0.941541 -0.821028
0.834045 0.944406 -0.824422
0.815411 0.930528 -0.805866
0.8095 0.924846 -0.807774
0.825201 0.931953 -0.817148
0.825384 0.932076 -0.816869
0.815287 0.927619 -0.815203
0.955288 0.985348 -0.951679
0.964882 0.989343 -0.961852
0.950721 0.982559 -0.95009
0.954426 0.984153 -0.952912
0.98021 0.994457 -0.979987
0.952608 0.984418 -0.954541
0.959393 0.986854 -0.961043
0.984518 0.998509 -0.988309
0.971494 0.993174 -0.974944
-0.0198945 1.84846 0.0296036
-0.040954 1.85993 0.0241576
-0.011975 1.87041 -0.00806313
-0.0295012 1.85265 -0.0230464
-0.0311137 1.83204 -0.0243968
-0.00933581 1.83697 -0.0264838
-0.0410477 1.83731 -0.0265614
-0.0324724 1.84009 -0.0277294
-0.0363758 1.8295 0.0289019
-0.096325 1.8515 0.0218335
-0.142019 1.84813 0.00349619
-0.128863 1.85139 0.00454844
-0.136643 1.83811 -0.0155502
-0.110489 1.84597 -0.0153439
-0.0916203 1.81571 -0.0180346
-0.110406 1.8175 -0.0194473
-0.111843 1.82514 -0.0226123
-0.124387 1.80191 0.0217229
-0.0973904 1.80276 0.0125532
-0.0875244 1.82928 0.0335282
-0.105177 1.82601 0.0334877
-0.176177 1.83904 0.0175122
-0.164008 1.83574 -0.0129932
-0.180003 1.81134 -0.0172561
-0.178688 1.79312 0.0216171
-0.151014 1.79205 0.0087835
-0.151014 1.79205 0.0087835
-0.151148 1.79508 0.0161582
-0.165734 1.80568 0.0303219
-0.160772 1.80267 0.0285222
-0.235636 1.81306 0.0388701
-0.23332 1.81269 -0.0110335
-0.27463 1.78782 0.0389414
-0.224971 1.79604 0.0337162
-0.320186 1.81686 0.0570392
-0.324124 1.82752 0.0460124
-0.363948 1.81114 0.0289028
-0.330087 1.81142 0.0154318
-0.345015 1.80782 0.0199132
-0.334861 1.79995 0.0180686
-0.33029 1.78595 0.0482485
-0.336292 1.78439 0.0459953
-0.322146 1.78331 0.0402704
-0.336935 1.78344 0.0439146
-0.320477 1.80078 0.0591201
-0.372796 1.82669 0.0748414
-0.377546 1.83122 0.0645061
-0.38275 1.83069 0.0544731
-0.429906 1.81803 0.0650382
-0.413501 1.81971 0.0567112
-0.394737 1.79156 0.0596717
-0.379015 1.79559 0.0792028
-0.43429 1.82556 0.116174
-0.457608 1.84404 0.114466
-0.430788 1.83711 0.100846
-0.46733 1.84142 0.0993526
-0.446004 1.83958 0.0922957
-0.464018 1.83316 0.0909253
-0.452605 1.80297 0.0941227
-0.476909 1.80893 0.123168
-0.518905 1.84392 0.164529
-0.537096 1.8508 0.171936
-0.522085 1.84295 0.124245
-0.535443 1.84483 0.130147
-0.516076 1.84616 0.123227
-0.520648 1.84649 0.125122
-0.519307 1.83819 0.121256
-0.553957 1.83737 0.143143
-0.532586 1.83002 0.133027
-0.498765 1.82014 0.146831
-0.50727 1.81849 0.142962
-0.508345 1.83147 0.156824
-0.56854 1.8659 0.181837
-0.578585 1.86796 0.1548
-0.597083 1.85402 0.159501
-0.605669 1.8614 0.160087
-0.609826 1.84896 0.175148
-0.579399 1.84115 0.158622
-0.577924 1.83933 0.163551
-0.594049 1.8607 0.193176
-0.572114 1.84984 0.184688
-0.641302 1.89161 0.186448
-0.685928 1.89755 0.188515
-0.654389 1.87147 0.179129
-0.682095 1.88288 0.185667
-0.666304 1.86726 0.192399
-0.649959 1.8614 0.188814
-0.662713 1.86663 0.188953
-0.67798 1.87596 0.21183
-0.65807 1.86779 0.204796
-0.667669 1.8692 0.204009
-0.677749 1.88731 0.216519
-0.744401 1.92546 0.222619
-0.716792 1.90017 0.193904
-0.711613 1.88665 0.196949
-0.731327 1.89035 0.212109
-0.752845 1.90404 0.225075
-0.714598 1.88328 0.211211
-0.74793 1.91354 0.229643
-0.732091 1.90564 0.226664
-0.80062 1.94915 0.232538
-0.773639 1.93819 0.224061
-0.77382 1.93927 0.220004
-0.789393 1.9431 0.214349
-0.784752 1.9413 0.214232
-0.798467 1.93704 0.21
-0.792097 1.92679 0.209666
-0.787691 1.9246 0.208945
-0.802967 1.92418 0.219745
-0.787662 1.91836 0.228252
-0.834093 1.93918 0.230436
-0.798017 1.9211 0.226
-0.792241 1.93082 0.235253
-0.785603 1.92136 0.232907
-0.875412 1.98939 0.231643
-0.849304 1.97466 0.233257
-0.85124 1.97289 0.222099
-0.860677 1.97647 0.220589
-0.875911 1.97948 0.22004
-0.845377 1.96353 0.21807
-0.853423 1.96932 0.218934
-0.861903 1.96402 0.218737
-0.86931 1.95929 0.228837
-0.860653 1.95428 0.228276
-0.860539 1.95542 0.223362
-0.913403 1.98401 0.234953
-0.885752 1.97069 0.237359
-0.852553 1.95682 0.240854
-0.920353 2.00832 0.241443
-0.925307 2.01698 0.23495
-0.929251 2.01902 0.236311
-0.910148 2.00785 0.234991
-0.939765 2.0268 0.228477
-0.944135 2.02805 0.226382
-0.932274 2.02219 0.228908
-0.914662 2.00021 0.222162
-0.917845 1.99506 0.22285
-0.95128 2.00938 0.231812
-0.949208 2.01281 0.239434
-0.927475 1.99662 0.238941
-0.956191 2.02666 0.240556
-0.930142 2.00937 0.242703
-0.981163 2.045 0.238472
-0.973079 2.04817 0.228527
-0.976741 2.05061 0.229311
-0.973528 2.04773 0.231405
-0.97719 2.05018 0.232188
-0.977264 2.0501 0.232668
-0.997266 2.04501 0.222781
-1.01561 2.05776 0.227212
-1.01369 2.06014 0.235139
-1.01355 2.06037 0.235551
-1.0435 2.09711 0.236659
-1.02646 2.08754 0.228278
-1.04149 2.09988 0.232327
-1.06722 2.11706 0.226814
-1.04214 2.08496 0.222349
-1.05134 2.08894 0.227513
-1.07865 2.11658 0.240067
-1.04376 2.08188 0.231755
-1.09253 2.14533 0.241512
-1.09254 2.14495 0.242864
-1.10593 2.15962 0.244068
-1.11857 2.16877 0.244385
-1.09071 2.14191 0.235042
-1.11187 2.1619 0.241617
-1.09185 2.12697 0.232007
-1.13435 2.1714 0.254688
-1.0948 2.12905 0.239758
-1.12233 2.16759 0.256319
-1.14405 2.19717 0.265532
-1.16553 2.22103 0.279517
-1.13854 2.19251 0.259402
-1.14992 2.20564 0.26301
-1.17636 2.22631 0.276305
-1.16862 2.21701 0.27072
-1.15097 2.19473 0.258144
-1.16158 2.20587 0.267884
-1.16166 2.20627 0.266834
-1.16658 2.21305 0.269729
-1.15877 2.20181 0.26833
-1.17857 2.23184 0.285421
-1.16603 2.21564 0.277587
-1.17899 2.24287 0.286557
-1.19188 2.25584 0.28963
-1.18944 2.25266 0.287697
-1.19206 2.25027 0.288553
-1.18558 2.23832 0.286042
-1.20287 2.26525 0.301864
-1.20298 2.26934 0.305216
-1.18472 2.24242 0.290756
-1.22953 2.30893 0.32567
-1.24061 2.32542 0.330399
-1.21792 2.29623 0.314575
-1.22097 2.29985 0.31632
-1.23788 2.31537 0.32754
-1.2433 2.32313 0.330951
-1.22617 2.30021 0.321184
-1.21981 2.29304 0.317905
0.0166475 1.8606 -0.0124177
0.0139666 1.87638 0.0191892
-0.00320031 1.85464 0.0383582
0.0112236 1.85946 0.0454649
0.0252052 1.86294 0.0529418
0.0192443 1.83939 0.056525
0.0389071 1.82029 0.0184129
4.20062E-4 1.81985 0.00235787
0.0881304 1.84681 0.0417587
0.0757226 1.85399 0.0348643
0.0958418 1.86213 0.0758878
0.0787711 1.86604 0.0662836
0.0515616 1.86144 0.0684499
0.0581846 1.86569 0.0605004
0.0450535 1.8463 0.0740708
0.0854041 1.81181 0.0882394
0.0822492 1.8146 0.0515215
0.0878002 1.81511 0.0525441
0.0750424 1.81304 0.0524861
0.103638 1.83175 0.0513316
0.085191 1.83742 0.0355506
0.174259 1.8503 0.138227
0.162828 1.85162 0.128063
0.136617 1.85437 0.103672
0.109929 1.8398 0.119298
0.124223 1.82191 0.131508
0.10308 1.82697 0.117397
0.344382 1.83245 0.253105
0.37921 1.82631 0.282148
0.347734 1.82213 0.250375
0.354729 1.82305 0.257436
0.339209 1.83708 0.250905
0.369612 1.84792 0.304936
0.349847 1.82636 0.314807
0.333048 1.83021 0.295536
0.321112 1.82468 0.28669
0.331033 1.81253 0.292059
0.314749 1.81555 0.279582
0.329058 1.80684 0.287233
0.377629 1.80876 0.293514
0.366323 1.80674 0.283689
0.345961 1.81194 0.253328
0.409713 1.85132 0.341666
0.380439 1.84706 0.322869
0.411076 1.85011 0.347779
0.408116 1.83347 0.363249
0.382077 1.83972 0.337707
0.389887 1.83973 0.344333
0.402876 1.82138 0.354452
0.418166 1.81338 0.351351
0.396756 1.81042 0.316624
0.393057 1.80803 0.321122
0.411303 1.81437 0.321215
0.503879 1.84022 0.376156
0.480704 1.81951 0.376241
0.481659 1.82024 0.374692
0.450263 1.81942 0.356117
0.502531 1.82293 0.380546
0.474966 1.8225 0.365599
0.588714 1.84368 0.406797
0.532819 1.83867 0.38923
0.589706 1.81628 0.419765
0.57426 1.81733 0.41529
0.569901 1.81856 0.411683
0.572709 1.83117 0.400129
0.53151 1.82871 0.391959
0.642384 1.83454 0.411312
0.618258 1.83325 0.408869
0.61398 1.84427 0.413683
0.613918 1.8446 0.414455
0.632654 1.8463 0.425429
0.616093 1.84264 0.437796
0.639357 1.82108 0.439346
0.604545 1.81652 0.428893
0.639346 1.8125 0.422239
0.64906 1.81146 0.422319
0.640755 1.82191 0.41109
0.612532 1.82628 0.410027
0.694703 1.82624 0.411285
0.686507 1.83819 0.425176
0.691345 1.83541 0.431181
0.69131 1.83481 0.432599
0.759356 1.81392 0.435476
0.709833 1.82001 0.439545
0.759276 1.81321 0.435766
0.682739 1.80739 0.427812
0.69825 1.8086 0.4338
0.687758 1.80901 0.418267
0.687705 1.80811 0.420394
0.732982 1.80653 0.411523
0.770383 1.82351 0.412576
0.775885 1.82311 0.412749
0.770754 1.82638 0.419711
0.8142 1.82094 0.428879
0.797825 1.82152 0.429851
0.786292 1.81434 0.434467
0.781167 1.81859 0.432783
0.808411 1.81672 0.433311
0.786831 1.8208 0.431837
0.769083 1.80588 0.432713
0.824132 1.80598 0.43488
0.769454 1.80973 0.434349
0.769331 1.80844 0.433803
0.773993 1.79896 0.424084
0.879897 1.81992 0.433718
0.869198 1.82 0.430364
0.862712 1.811 0.437511
0.851954 1.81054 0.435457
0.85762 1.8166 0.434107
0.863172 1.79963 0.435117
0.85764 1.80043 0.434555
0.885082 1.80108 0.4393
0.981832 1.81956 0.442938
1.01065 1.82264 0.451791
0.95506 1.82491 0.443237
0.948622 1.82332 0.448636
0.971866 1.81712 0.462254
0.963487 1.80992 0.457268
0.994219 1.81037 0.460031
0.946873 1.80176 0.443483
0.956313 1.80352 0.446893
0.965753 1.80528 0.450302
0.991404 1.81111 0.450142
0.981632 1.80917 0.448116
0.952104 1.80293 0.44305
0.958282 1.8091 0.436923
0.943928 1.80478 0.43323
1.04293 1.82928 0.461661
1.02688 1.83324 0.463617
1.02052 1.83249 0.469004
1.04986 1.83597 0.473796
1.06936 1.83815 0.477285
1.06867 1.83065 0.485044
1.01987 1.8279 0.473798
1.05976 1.82246 0.481322
1.04483 1.82288 0.479109
1.02059 1.82076 0.474332
1.05742 1.82045 0.468087
1.03374 1.81671 0.464216
1.0481 1.81926 0.465831
1.04344 1.81867 0.464703
1.04371 1.81969 0.463184
1.12139 1.83783 0.4776
1.09434 1.83869 0.476859
1.14321 1.83149 0.489581
1.12093 1.83168 0.490082
1.09865 1.83381 0.48977
1.13203 1.82525 0.487741
1.15366 1.82268 0.482051
1.14277 1.82447 0.47797
1.09981 1.82346 0.481279
1.10532 1.82419 0.479413
1.14293 1.82744 0.475445
1.23982 1.82508 0.466254
1.22943 1.82756 0.469842
1.20277 1.83196 0.474479
1.21352 1.83041 0.473138
1.19782 1.83379 0.477718
1.2249 1.82686 0.475724
1.20347 1.83201 0.478689
1.25141 1.82066 0.469519
1.20837 1.82268 0.481338
1.18546 1.82335 0.476593
1.2217 1.82139 0.465614
1.29382 1.80837 0.442606
1.28242 1.81388 0.4508
1.28819 1.8118 0.452987
1.28825 1.81168 0.453236
1.29593 1.80329 0.450642
1.28789 1.80705 0.455447
1.26447 1.80964 0.463105
1.31125 1.79558 0.440027
1.27801 1.80645 0.458471
1.2885 1.80211 0.447018
1.29704 1.79932 0.443292
1.27613 1.80549 0.454345
1.26716 1.81255 0.454099
1.34329 1.78962 0.416476
1.36105 1.78459 0.408174
1.34632 1.79095 0.420959
1.35409 1.78787 0.415211
1.37814 1.77424 0.402111
1.35194 1.78117 0.415732
1.36838 1.77513 0.405769
1.36849 1.77519 0.405934
1.35871 1.78092 0.406479
1.35466 1.78274 0.408865
1.34656 1.78637 0.413637
1.43377 1.75416 0.363821
1.42899 1.75578 0.366335
1.40142 1.76731 0.382212
1.411 1.7639 0.377338
1.46815 1.74269 0.348144
1.43067 1.75697 0.36858
1.40253 1.76773 0.383818
1.41232 1.76211 0.38073
1.45888 1.74583 0.353692
1.45406 1.7464 0.356772
1.42052 1.75649 0.374883
1.40017 1.76308 0.382783
1.41011 1.75927 0.378724
1.44766 1.74783 0.356295
1.42392 1.75653 0.368856
1.41919 1.75848 0.371276
-0.0290864 2.70877 -0.00854437
-0.0280825 2.71114 -0.00850663
-0.00808819 2.7232 -0.0354081
0.0184259 2.70321 -6.01875E-4
0.0114992 2.71251 -0.0190854
0.0127246 2.69232 -0.0330335
-0.0388537 2.71825 -0.0864023
-0.0344178 2.71599 -0.0556746
-0.0236759 2.72313 -0.0650007
-0.007204 2.7215 -0.0758361
-0.0057075 2.71768 -0.107917
-0.00336025 2.71514 -0.100573
0.00452713 2.68895 -0.0639877
0.00736288 2.69573 -0.0640792
-0.0382542 2.68406 -0.0926141
-0.0293916 2.68037 -0.0586498
-0.0360584 2.68782 -0.0570544
-0.0399166 2.69107 -0.0760047
-0.0109202 2.71654 -0.143397
-0.00650187 2.71312 -0.124013
-0.00928619 2.6899 -0.129212
-0.00539081 2.69709 -0.125293
-0.00684519 2.70403 -0.145151
-0.0226511 2.6811 -0.123445
-0.0202337 2.68482 -0.140262
-0.0213964 2.68841 -0.164801
-0.0467035 2.68888 -0.160726
-0.0381497 2.68446 -0.133166
-0.0587481 2.70799 -0.173572
-0.0478146 2.69452 -0.126551
-0.0501781 2.69579 -0.142654
-0.0515584 2.70159 -0.133744
-0.0602758 2.72758 -0.22527
-0.0599473 2.72444 -0.216587
-0.0423632 2.73499 -0.213316
-0.0281084 2.72958 -0.211693
-0.0251129 2.72832 -0.212305
-0.0183988 2.71617 -0.196855
-0.0211154 2.70748 -0.215568
-0.0181832 2.70503 -0.19811
-0.0366929 2.68647 -0.188188
-0.0592206 2.70362 -0.201409
-0.0574114 2.6999 -0.197447
-0.0592852 2.70027 -0.220389
-0.0692251 2.72451 -0.265586
-0.0709614 2.72434 -0.27438
-0.0642908 2.73736 -0.268262
-0.0367693 2.73714 -0.26304
-0.031195 2.7278 -0.283263
-0.0315355 2.73211 -0.2603
-0.0536061 2.70936 -0.311346
-0.0632641 2.70539 -0.265284
-0.0512378 2.71849 -0.339323
-0.071146 2.72787 -0.363058
-0.0732456 2.7267 -0.347027
-0.084436 2.76841 -0.439225
-0.0720934 2.77973 -0.432575
-0.0802241 2.78661 -0.46154
-0.0656993 2.78157 -0.432736
-0.0551463 2.77744 -0.472361
-0.0570582 2.76661 -0.470779
-0.0783555 2.75647 -0.457356
-0.0699651 2.74951 -0.446723
-0.0876939 2.77376 -0.501325
-0.0859349 2.81674 -0.552912
-0.0867444 2.81044 -0.536237
-0.0861178 2.80022 -0.507111
-0.0699836 2.7996 -0.500487
-0.0715541 2.80208 -0.508795
-0.0628887 2.79296 -0.517636
-0.0648286 2.79479 -0.53551
-0.0746159 2.79027 -0.558694
-0.0683679 2.77951 -0.525701
-0.0857436 2.78418 -0.549308
-0.094504 2.79001 -0.518156
-0.106559 2.8625 -0.69686
-0.10647 2.85957 -0.688723
-0.104212 2.83916 -0.692915
-0.11881 2.84693 -0.711508
-0.112775 2.83631 -0.692702
-0.115524 2.83574 -0.687632
-0.129926 2.89032 -0.768397
-0.130875 2.89293 -0.776966
-0.130119 2.89651 -0.780194
-0.13091 2.88851 -0.769242
-0.120502 2.88857 -0.749924
-0.12263 2.89425 -0.7616
-0.116368 2.89817 -0.769421
-0.118922 2.90127 -0.772483
-0.110167 2.88134 -0.749403
-0.111018 2.87364 -0.758292
-0.120757 2.8986 -0.8099
-0.119782 2.88046 -0.779251
-0.113658 2.86866 -0.755769
-0.125921 2.86633 -0.751002
-0.130371 2.87246 -0.747532
-0.123553 2.99781 -0.939027
-0.120963 2.98362 -0.913165
-0.12328 3.008 -0.953588
-0.114152 2.99609 -0.926599
-0.117493 2.99156 -0.947914
-0.118742 2.99326 -0.951753
-0.111406 2.97666 -0.917719
-0.12774 3.0159 -0.973268
-0.129526 3.01596 -0.977554
-0.12851 3.02096 -0.985507
-0.126598 3.02006 -0.981532
-0.131071 3.02501 -0.997659
-0.12397 3.01979 -0.982342
-0.125365 3.02097 -0.986359
-0.121932 3.01766 -0.988499
-0.128831 3.02097 -1.00943
-0.121653 3.01515 -0.989479
-0.129378 3.01127 -0.993408
-0.205077 3.04483 -1.14688
-0.207138 3.04503 -1.15078
-0.211908 3.04799 -1.16297
-0.203866 3.04665 -1.15238
-0.200884 3.04366 -1.14929
-0.202562 3.04158 -1.14861
-0.200161 3.04122 -1.14491
-0.214022 3.0455 -1.17221
-0.213464 3.04437 -1.16763
-0.207231 3.04392 -1.15087
-0.421109 3.81533 0.557786
-0.417599 3.81743 0.557904
-0.453558 3.87156 0.578521
-0.43846 3.84788 0.572435
-0.442411 3.85793 0.576256
0.131755 3.4572 -0.0854725
-0.0618684 4.01664 -0.0566965
-0.0871652 4.03216 -0.075615
-0.0818738 4.02812 -0.068439
-0.0930015 4.03418 -0.0829803
-0.11981 4.02901 -0.103293
-0.120549 4.01892 -0.0974212
-0.147834 4.05194 -0.0988731
-0.214361 4.07999 -0.123901
-0.199182 4.0746 -0.129049
-0.198599 4.07238 -0.132489
-0.214762 4.06117 -0.134064
-0.264565 4.1129 -0.148124
-0.26513 4.11787 -0.154447
-0.26678 4.09722 -0.158841
-0.282896 4.10874 -0.153326
-0.268876 4.09809 -0.150149
-0.304084 4.12551 -0.165014
-0.293947 4.11539 -0.160633
-0.313873 4.14781 -0.152732
-0.327393 4.15293 -0.163418
-0.325654 4.14051 -0.161688
-0.316284 4.1372 -0.151658
-0.345989 4.15361 -0.15407
-0.361087 4.18591 -0.146938
-0.373161 4.17932 -0.143039
-0.370538 4.1758 -0.145569
-0.380347 4.19175 -0.138149
-0.365832 4.17297 -0.141391
-0.395927 4.21552 -0.137752
-0.385857 4.21162 -0.140894
-0.408411 4.22352 -0.142286
-0.442912 4.29913 -0.156
-0.456891 4.31677 -0.160649
-0.454594 4.32371 -0.15999
-0.461011 4.33584 -0.162802
-0.46507 4.33858 -0.166378
-0.470424 4.34046 -0.160069
-0.523188 4.41033 -0.157237
-0.535297 4.42417 -0.156126
-0.52237 4.40522 -0.158941
-0.52513 4.40888 -0.158487
-0.520249 4.40076 -0.157364
-0.522513 4.40469 -0.155674
-0.0760535 4.70551 0.0311668
-0.077654 4.70381 0.0357115
-0.0909133 4.68138 -0.175567
-0.0918728 4.68913 -0.176949
-0.0767498 4.91481 -0.162962
-0.0798042 4.91249 -0.166458
-0.080623 4.91629 -0.163521
-0.0715263 4.92804 -0.15335
-0.0674437 4.93538 -0.150979
-0.0453025 4.95861 -0.127929
-0.894331 1.80185 -0.164525
-0.900805 1.79184 -0.173134
-1.06827 1.8418 -0.206835
-1.09252 1.84689 -0.198072
-1.09749 1.83864 -0.19841
-1.13082 1.84381 -0.189026
-1.14501 1.84221 -0.184921
-1.15376 1.83603 -0.181104
-1.21273 1.83478 -0.158675
-1.22434 1.83466 -0.158315
-1.21887 1.83517 -0.15954
-1.22446 1.83343 -0.158958
-0.855783 1.89175 0.704568
-0.853989 1.89015 0.69968
-0.867994 1.90135 0.71931
-0.872094 1.90427 0.728549
-0.880202 1.91521 0.750918
-0.891203 1.92898 0.763408
-0.902421 1.93076 0.775604
-0.898245 1.93096 0.778196
0.938264 1.97671 0.922214
0.955646 1.9918 0.944126
0.9691 2.00411 0.964164
-0.110336 3.03301 -1.00797
-0.116318 3.03865 -1.01139
-0.109578 3.05067 -1.03073
-0.10284 3.05807 -1.02935
-0.1012 3.0589 -1.04034
-0.108381 3.05764 -1.0372
-0.0946483 3.07892 -1.06597
-0.0746855 3.14645 -1.14861
-0.285995 3.62177 0.471242
-0.294266 3.6339 0.488305
-0.290503 3.6406 0.505678
-0.28479 3.64824 0.507942
-0.313001 3.68709 0.572449
-0.311285 3.70611 0.600198
-0.31185 3.69369 0.601164
-0.316306 3.73253 0.666549
-0.307637 3.73222 0.671469
-0.312296 3.74544 0.696592
-0.312088 3.74881 0.699862
-0.304128 3.76753 0.737621
-0.300611 3.76054 0.730688
-0.299658 3.76122 0.730153
-0.302908 3.76978 0.741034
-0.282081 3.80023 0.806156
-0.279557 3.80635 0.824901
0.1758 3.50348 -0.0844618
0.178985 3.49007 -0.0977443
0.195003 3.50587 -0.078345
0.194322 3.51513 -0.0954413
0.238094 3.53522 -0.0990517
0.254605 3.5551 -0.12755
0.249729 3.55249 -0.120471
0.251634 3.54362 -0.130218
0.272649 3.56834 -0.135913
0.322185 3.58645 -0.140702
0.328749 3.58763 -0.145926
0.350801 3.61437 -0.155188
0.359695 3.63186 -0.16401
0.38981 3.6587 -0.19674
0.417106 3.67083 -0.203023
0.515636 3.80356 -0.251086
0.515673 3.79269 -0.240092
0.531498 3.81338 -0.25376
-0.031777 4.52467 -0.067788
0.0565915 4.59214 0.0063295
-0.0148358 0.119896 -0.090277
0.0101993 0.128663 -0.0879851
0.0420487 0.141835 -0.0850286
0.0359973 0.0221965 -0.0879478
0.0379851 0.066508 -0.086888
-0.0551866 0.111077 -0.0694931
-0.0551866 0.111077 -0.0694931
-0.0536754 0.084428 -0.0715252
-0.0535961 0.0933098 -0.0713402
-0.0339178 0.14212 -0.0865683
-0.0393639 0.119926 -0.0826002
-0.0395227 0.102163 -0.0829703
-0.0485864 0.0666535 -0.0763261
-0.0906514 0.0710857 0.00906975
-0.0903518 0.0932865 0.0112451
-0.0905359 0.111039 0.0180041
-0.087347 0.133295 -0.0140394
-0.0509873 0.137436 0.0765667
-0.0599025 0.133057 0.0661452
-0.0746178 0.137578 0.0485782
0.00908747 0.0929659 0.090548
-0.0024105 0.119549 0.0891054
0.00215194 0.119531 0.0894906
0.0203711 0.128307 0.0908714
0.0135121 0.132757 0.0902137
0.0181358 0.115046 0.0909187
0.0135733 0.115064 0.0905335
-0.0183943 0.124034 0.0876773
-0.0137094 0.0886312 0.088702
-0.00694231 0.11072 0.0888801
0.0802726 0.022113 0.0510004
0.0783868 0.0309556 0.0524068
0.0829522 0.0751398 0.0476236
0.0435125 0.137093 0.079622
0.0883281 0.128218 0.0123093
0.0887497 0.0884389 0.0149077
0.0866994 0.0839789 0.0400367
0.0885132 0.0663304 0.0219277
0.0807378 0.0841127 -0.0432924
0.0859047 0.128309 -0.0359575
0.0893028 0.101752 -0.0326616
-0.0115484 0.259007 -0.0870502
0.00389472 0.26763 -0.0855609
0.0193803 0.267585 -0.0842534
0.0216349 0.258911 -0.0842485
-0.0645074 0.276449 -0.0564909
-0.0288842 0.276393 -0.0865675
-0.0324203 0.263403 -0.0839933
-0.0294101 0.228745 -0.0876318
-0.0334722 0.168107 -0.0861218
-0.0401141 0.181113 -0.0801027
-0.0891038 0.181103 0.0202604
-0.0892642 0.189761 0.0246509
-0.0869965 0.198454 2.82563E-4
-0.0865703 0.215781 2.14688E-4
-0.0858519 0.267753 0.00664772
-0.0878251 0.233083 0.0200568
-0.0847037 0.246119 -0.0131774
-0.0607447 0.241592 0.0615787
-0.0618057 0.267602 0.0594629
-0.0548921 0.250234 0.0682243
-0.047731 0.250201 0.076706
-0.0507192 0.241546 0.0734531
-0.0804864 0.263352 0.0374803
0.0203802 0.275998 0.0883076
0.0225996 0.271655 0.0885701
0.0248617 0.241293 0.0892869
-0.00828597 0.219707 0.0868638
-0.0127532 0.245739 0.0860359
-0.0150153 0.276101 0.0853191
-0.00834297 0.254399 0.086258
0.0827697 0.210827 0.0450767
0.0710754 0.197833 0.0551953
0.0581199 0.275926 0.0646623
0.0519352 0.232562 0.0707015
0.0462455 0.275945 0.0746878
0.0841122 0.249864 0.041153
0.0839254 0.249862 0.0433652
0.0845457 0.245532 0.0367595
0.0851267 0.163112 0.0439858
0.0495775 0.267482 -0.0752547
0.0697599 0.258719 -0.0515822
0.0804443 0.215309 -0.0400877
0.0880488 0.280317 -0.0293403
0.0826496 0.258661 -0.0363154
0.0882643 0.171911 -0.0319858
0.0777776 0.202312 -0.0435942
0.00620431 0.402705 -0.0827744
0.00650431 0.366465 -0.0834344
0.0192134 0.384628 -0.0820188
0.0300794 0.366543 -0.0814441
0.0151521 0.357433 -0.0828757
0.0237623 0.352932 -0.0822344
0.0196634 0.330268 -0.0830088
-0.0381078 0.35748 -0.0766884
-0.0344426 0.411683 -0.0784034
-0.0315973 0.348459 -0.0824152
-0.0864059 0.31233 0.024255
-0.0847781 0.330375 0.00915119
-0.0814328 0.389052 -0.0168969
-0.0809813 0.411634 -0.0170238
-0.046891 0.303135 0.0760368
-0.0571703 0.384618 0.0614799
-0.0500961 0.398244 0.069462
-0.0707718 0.411727 0.044576
0.00960519 0.343854 0.0861724
-0.0143683 0.421016 0.0827514
0.0710847 0.334794 0.0523871
0.0599258 0.412112 0.0600413
0.0591989 0.357519 0.0619025
0.0712769 0.421232 0.0502497
0.0732258 0.403038 0.04902
0.076589 0.398495 0.0462844
0.0682956 0.403029 0.0531826
0.0318352 0.42116 0.0835504
0.0505237 0.384799 0.0686033
0.0822066 0.357561 0.042477
0.0826931 0.339361 0.0404917
0.0787002 0.339327 -0.0387631
0.0830272 0.330262 -0.0338921
-0.0243466 0.795873 -0.0814105
-0.0171595 0.817505 -0.0807302
-0.0153351 0.821844 -0.0805615
-0.00554875 0.817887 -0.0797527
0.00451238 0.878125 -0.0786948
-5.18187E-4 0.848006 -0.0792238
-0.0541149 0.846646 -0.0627126
-0.0815171 0.825299 -0.0121678
-0.0808038 0.820912 -0.0198723
-0.0801085 0.842098 -0.0316818
-0.0810523 0.863571 -0.0241328
-0.0586938 0.878416 0.0514403
-0.0709069 0.852118 0.0372475
-0.0731524 0.830617 0.0348192
-0.0681946 0.835152 0.0406475
-0.0807189 0.8345 0.0258069
-0.071485 0.796488 0.037167
0.00365397 0.87216 0.0721589
-0.00940762 0.850307 0.071824
-0.0119236 0.875933 0.0706949
-0.00979487 0.867434 0.0711798
-0.00902038 0.83318 0.0724681
-0.0272107 0.866861 0.069714
-0.0382393 0.755091 0.0727607
0.0367996 0.86862 0.0571805
0.0341634 0.859991 0.0600218
0.0241167 0.812606 0.071888
0.0267639 0.782603 0.0718034
0.0338529 0.791305 0.0652011
0.0740812 0.795247 -0.0260859
0.06993 0.868253 -0.0231204
0.0674714 0.868683 0.00591769
0.0379255 0.772059 -0.0721194
-0.0290358 0.976131 -0.0809334
0.0168003 1.01171 -0.0768661
0.0134811 0.994387 -0.0772477
-0.0758106 0.906374 -0.045495
-0.0584188 1.01013 -0.061884
-0.0737588 0.975409 -0.0483614
-0.0846904 1.00153 -0.00141091
-0.0840144 0.984232 -0.00689978
-0.0829666 0.975513 -0.0180457
-0.0830793 0.958296 -0.0141996
-0.0822678 1.0099 -0.031339
-0.0645362 1.00249 0.0432315
-0.0826614 1.00185 0.0217599
-0.0754113 1.00211 0.0303486
-0.0764415 0.984869 0.0293046
0.00477662 1.0044 0.0678343
-0.00268962 1.00423 0.067205
-0.0133572 0.978299 0.0671581
-0.0224242 0.965246 0.0668201
-0.0420647 1.01184 0.0636024
-0.0272263 0.926623 0.0676936
-0.0369136 0.943507 0.0663091
0.0507821 1.0137 0.0355288
0.0184544 0.919528 0.0691636
0.0332569 0.945298 0.0549349
0.0675445 0.915217 -0.0238187
0.0671297 0.911014 -0.0163093
0.0673283 0.919483 -0.0238602
0.0646117 0.945223 -0.00730603
0.0632798 0.996291 -0.0227397
0.0310572 0.934835 -0.0721378
0.0286405 0.934749 -0.0750006
0.0410681 0.926598 -0.0607088
0.0329577 0.947786 -0.0692415
0.0296807 0.969145 -0.0720485
0.0585128 1.00452 -0.0361741
0.0505706 0.991357 -0.0462274
0.0497103 1.0128 -0.0461716
0.0488461 1.00418 -0.0476253
-0.05702 1.1568 0.0501834
-0.0593383 1.1617 0.0473759
-0.0839189 1.09795 0.019078
-0.0711023 1.10287 0.0341926
-0.0826531 1.14696 0.0199541
-0.0756373 1.16168 0.0280751
-0.0828461 1.05384 0.0209089
0.00337175 1.16209 0.0642853
-0.0267537 1.09873 0.0630481
0.0444238 1.09024 0.0376818
0.0445599 1.1288 0.0360051
0.0343079 1.1046 0.0456392
0.0437833 1.15289 0.0356848
0.0440939 1.14325 0.0358129
0.0499188 1.13367 0.0312842
0.0277065 1.13828 0.0498476
0.0226389 1.16715 0.0529559
0.0610932 1.05142 -0.0231885
0.0586807 1.11921 -0.0213218
0.0580943 1.10948 -0.0105434
0.0563476 1.14819 -0.00511009
0.0563377 1.15304 -0.00690322
0.0577117 1.14827 -0.0212924
0.0575701 1.14341 -0.0177012
0.0581763 1.14344 -0.0248933
0.0259046 1.04062 -0.0731743
0.0361287 1.14807 -0.0567403
0.0356592 1.16761 -0.0565096
0.0219329 1.10899 -0.0751239
0.0510288 1.15786 -0.0387028
0.0500993 1.14809 -0.0401968
0.0424193 1.12855 -0.0500779
-0.0164879 1.29021 -0.0740008
-0.00964559 1.30478 -0.0729908
-0.00277878 1.31446 -0.0721236
-0.00250962 1.26071 -0.0736942
0.0179929 1.30931 -0.0705215
0.014584 1.29958 -0.0710979
0.00245697 1.30462 -0.071973
7.03562E-4 1.30953 -0.0719756
0.0114932 1.22633 -0.0735304
0.0182866 1.25068 -0.0722349
0.0149021 1.23606 -0.0729541
0.0201868 1.21645 -0.073089
-0.0398128 1.31476 -0.0715462
-0.0360146 1.29511 -0.075501
-0.08429 1.21575 0.00550997
-0.0818225 1.28457 -0.00610062
-0.0809108 1.31403 -0.00934787
-0.0828489 1.31846 0.0148892
-0.0806008 1.32872 -0.00924278
-0.0817857 1.31383 0.00102444
-0.0560904 1.22037 0.0502226
-0.0492567 1.22985 0.0581369
-0.0598069 1.28368 0.0446826
-0.0588046 1.27393 0.0460446
-0.0498491 1.27361 0.0566461
-0.0657554 1.25473 0.0381671
-0.0689381 1.26942 0.0341363
-0.0676429 1.28395 0.0354063
-0.0721207 1.28411 0.0301055
0.00170831 1.20571 0.0637802
0.00168719 1.21536 0.063731
-4.175E-5 1.21538 0.0635856
-0.0140317 1.28795 0.0620535
-0.0122499 1.2638 0.0623218
-0.0123767 1.32171 0.0620267
0.0424531 1.25416 0.035457
0.0343089 1.26857 0.0422346
0.0469301 1.31686 0.0312396
0.0443424 1.31202 0.0334586
0.0484463 1.30241 0.0300598
0.0529554 1.2835 0.00872453
0.0531013 1.28354 0.00699581
0.0514714 1.30734 0.0226546
0.0515984 1.2977 0.0226145
0.0519348 1.28327 0.0208256
0.0265484 1.31406 -0.0621218
0.0297682 1.32364 -0.0579674
0.0372466 1.2701 -0.0509992
0.0413781 1.29417 -0.0452515
0.0391392 1.29425 -0.0479019
0.0562656 1.19194 -0.0312257
-0.0208397 1.44544 -0.0679394
-0.00575009 1.46226 -0.065894
-0.00431897 1.43651 -0.066943
0.0191452 1.46173 -0.0638053
0.0107706 1.45333 -0.0648976
0.0118208 1.38473 -0.0679268
-0.0593331 1.38959 -0.0503717
-0.0664979 1.36805 -0.0457947
-0.0559764 1.44554 -0.0493724
-0.0578804 1.46275 -0.0465842
-0.05296 1.42403 -0.0533951
-0.047709 1.42835 -0.0575354
-0.0805934 1.3671 0.00920359
-0.0778641 1.40187 -0.00666866
-0.077185 1.44456 0.00585128
-0.0786014 1.41865 0.0102877
-0.0751349 1.43665 -0.0225409
-0.0758096 1.44071 -0.0124936
-0.0511279 1.37006 0.0531051
-0.0583922 1.41759 0.0433375
-0.0467998 1.44702 0.056316
-0.0663829 1.43943 0.0333476
-0.0635226 1.42642 0.0370521
-0.0149809 1.45484 0.0625859
-0.0134767 1.442 0.0626324
-0.01524 1.4335 0.0624312
-0.0153954 1.4207 0.0623384
0.00332744 1.45872 0.0641489
-0.00180706 1.44602 0.0636383
-0.0187148 1.42077 0.0620598
0.0312905 1.43303 0.0462454
0.0223819 1.433 0.0537704
0.0137842 1.45858 0.0614811
0.0135769 1.44151 0.0613573
0.0534146 1.42962 -0.0017975
0.0514621 1.39494 0.0208315
0.0517366 1.41634 0.01789
0.0528587 1.4124 0.0045385
0.0524395 1.40802 0.0094415
0.0520307 1.36526 0.013665
0.0514633 1.39068 0.020756
0.0229988 1.4616 -0.0610689
0.0327104 1.43549 -0.0504901
0.0337986 1.42689 -0.0495076
0.03913 1.45225 -0.0422797
0.0466378 1.46041 -0.033087
0.0457071 1.37078 -0.037398
-0.0270927 1.59901 -0.0618453
0.0109094 1.58136 -0.059381
0.0015425 1.59858 -0.059439
0.0147913 1.49594 -0.0627005
0.00710431 1.52167 -0.0622528
-0.0400969 1.53948 -0.0564239
-0.0486345 1.53949 -0.0492113
-0.0352457 1.49266 -0.0636833
-0.0344521 1.52245 -0.0623422
-0.075426 1.50005 0.0122514
-0.0740075 1.53854 0.0145471
-0.0716325 1.56444 -8.91187E-4
-0.071939 1.56013 6.21313E-4
-0.0708655 1.59006 0.00276031
-0.0711335 1.59002 0.00594194
-0.0688555 1.5904 -0.0211019
-0.0687785 1.59891 -0.0177636
-0.0715755 1.55594 -0.00582025
-0.042969 1.50272 0.0592932
-0.0534086 1.56761 0.0450476
-0.0407909 1.57581 0.0597325
-0.0577854 1.55914 0.0401181
-0.00305469 1.5536 0.0639591
0.00330869 1.5535 0.0644938
-0.0265617 1.57983 0.0620752
-0.0159 1.54517 0.0628491
0.0471594 1.51464 0.0342066
0.0325424 1.52757 0.0467658
0.0398226 1.50172 0.0401943
0.037421 1.52757 0.0426443
0.0497118 1.59216 0.0333136
0.0496992 1.58354 0.0331839
0.024055 1.56204 0.0544974
0.053044 1.57098 0.00650537
0.0520621 1.54067 0.0171872
0.0520683 1.54498 0.017252
0.0512057 1.59651 0.0291664
0.0513209 1.58361 0.027381
0.0521312 1.58805 0.0179008
0.0377188 1.57202 -0.0401586
0.0387495 1.58914 -0.0384051
0.0511092 1.53729 -0.0253746
0.0480189 1.54167 -0.0288993
0.0500811 1.59307 -0.0248581
-0.00982553 1.74776 -0.0569717
0.00847334 1.70905 -0.0562976
0.0145833 1.68484 -0.0563242
0.013026 1.72358 -0.0555906
0.0206579 1.69938 -0.0554892
-0.063111 1.64672 -0.0311596
-0.0605428 1.65635 -0.0329935
-0.0568001 1.71421 -0.0341403
-0.0494477 1.72863 -0.0398483
-0.0458302 1.73343 -0.0427366
-0.058194 1.75281 -0.0316192
-0.0585463 1.73834 -0.0318253
-0.0534098 1.7576 -0.0354932
-0.0432619 1.74306 -0.0445705
-0.0698484 1.67548 0.0190388
-0.0694462 1.65595 0.00838584
-0.0690896 1.68514 0.0129507
-0.0688701 1.72408 0.0220811
-0.0508163 1.72398 0.04345
-0.0641422 1.75323 0.0267995
0.00892194 1.62545 0.0648356
0.0120678 1.67474 0.0645047
-0.0106705 1.71906 0.062057
-0.0167076 1.74369 0.0612517
0.0366599 1.71893 0.0432771
0.0214624 1.70425 0.0562671
0.0131938 1.65501 0.0637538
0.050643 1.69423 0.0260594
0.0517948 1.69411 0.0123622
0.0501728 1.73362 0.0274693
0.0503867 1.70901 0.0275393
0.0512844 1.63516 0.0247055
0.0511553 1.67943 0.0215357
0.041295 1.71373 -0.032397
0.0405045 1.69417 -0.0337834
0.0469652 1.73823 -0.0251223
-0.00805053 1.85891 -0.0571217
-0.00523081 1.88304 -0.0570067
-0.00524797 1.88786 -0.0570323
-0.00512788 1.85414 -0.0568528
-0.0140331 1.90697 -0.0578647
0.00492128 1.88804 -0.056181
0.00205009 1.87836 -0.0563729
0.00635687 1.89289 -0.056085
0.00341706 1.90247 -0.0563796
0.00339991 1.90728 -0.0564052
-0.0569772 1.79134 -0.0327606
-0.0541789 1.8685 -0.0357712
-0.0508729 1.86363 -0.038523
-0.0574849 1.87338 -0.0330194
-0.0362856 1.8779 -0.0509648
-0.0406698 1.88761 -0.0473428
-0.045054 1.89732 -0.0437208
-0.065988 1.9085 0.00894581
-0.0649312 1.83549 -0.00887337
-0.0647018 1.84992 -0.0105372
-0.0639268 1.88832 -0.0169102
-0.0664883 1.82619 0.0212275
-0.00605134 1.88156 0.0571107
-0.0365822 1.91042 0.0533912
-0.0322008 1.88108 0.0549214
-0.030702 1.82228 0.0573737
0.0317229 1.87153 0.0410192
0.0248205 1.8864 0.0460622
0.0175353 1.85203 0.0540516
0.0275599 1.85188 0.0455846
0.0283813 1.87157 0.0438416
0.0179913 1.89635 0.0513058
0.0526275 1.79208 -0.0158848
0.0508591 1.82176 -0.00478313
0.0508591 1.82176 -0.00478313
0.0490548 1.87079 1.66813E-4
0.0493595 1.90448 -0.014955
0.0345957 1.85026 -0.0379848
0.0233847 1.89808 -0.0505458
-0.00618975 1.99314 -0.0592828
-0.0130443 1.9887 -0.0597474
-7.82E-4 2.0018 -0.0590467
-0.038002 2.00128 -0.0532927
-0.0315729 1.99691 -0.0585557
-0.0332521 1.96709 -0.0559732
-0.0323176 1.9756 -0.0570951
-0.0333153 1.97135 -0.0560861
-0.0652896 2.03692 -0.00718397
-0.0638798 1.98507 -0.0205002
-0.0635189 1.98062 -0.0244904
-0.0647393 2.00255 -0.0114527
-0.064368 1.99384 -0.0152852
-0.0630928 1.99746 -0.0306518
-0.0636016 2.01476 -0.0257521
-0.0632024 1.94637 -0.0259939
-0.0636802 1.95087 -0.0206211
-0.0630203 1.96759 -0.0295477
-0.0479923 2.01765 0.034381
-0.0632333 2.02937 0.0156905
-7.71219E-4 2.04922 0.0476152
-0.0213261 2.03155 0.0470053
-0.0167773 1.99734 0.049597
-0.0349631 2.01405 0.0469729
-0.0201415 2.04875 0.0459982
0.041877 1.95435 0.026598
0.043999 1.95432 0.024806
0.0276297 2.01898 0.032824
0.0347432 2.05321 0.02372
0.0341672 2.01458 0.02769
0.0157872 2.02347 0.042438
0.04634 1.97022 -0.0120475
0.0446872 2.00462 -0.0106625
0.0449128 2.0213 -0.0224137
0.0426316 2.02664 0.00230106
0.0432806 2.01373 0.00143603
0.0435749 2.00938 2.25938E-4
0.0222837 1.93402 -0.0514509
0.0196976 1.95953 -0.054284
0.0299165 1.97741 -0.0420481
0.0265358 2.02856 -0.0455956
0.0300176 2.00312 -0.0417032
0.019736 2.04519 -0.0534872
0.0168153 2.02356 -0.0571293
0.0255077 2.03276 -0.046774
0.0234513 2.04118 -0.0491308
0.0171116 1.98504 -0.0571171
0.0316766 2.00752 -0.0397035
-0.020034 2.14755 -0.0639044
-0.0242223 2.16476 -0.0646151
-0.00814025 2.14342 -0.0628182
-3.7375E-4 2.15218 -0.0623476
-0.0558724 2.15623 -0.0436857
-0.0519627 2.16483 -0.0472822
-0.0539786 2.16485 -0.045579
-0.0490609 2.17344 -0.0500271
-0.0444191 2.13022 -0.0524829
-0.0357747 2.16038 -0.0608127
-0.0420053 2.17338 -0.0559883
-0.0401114 2.182 -0.0578816
-0.0302789 2.05669 -0.0619375
-0.0348597 2.09559 -0.0593867
-0.0317139 2.08693 -0.0617514
-0.0441751 2.11295 -0.0521026
-0.0307669 2.09124 -0.062698
-0.0658675 2.17005 -0.00759934
-0.0655117 2.15702 -0.0111243
-0.0652277 2.18278 -0.0159046
-0.0648789 2.11375 -0.016302
-0.0430496 2.17581 0.0325015
-0.0643338 2.17056 0.00752553
-0.0642977 2.0806 0.0118857
-0.0608954 2.08932 0.0154998
-0.0592011 2.11082 0.0164763
-0.0376447 2.12499 0.0399125
-0.0263636 2.17626 0.0377881
-0.0297102 2.12086 0.0408329
0.0363541 2.12118 0.0165621
0.0343383 2.1212 0.0182653
0.0271157 2.15102 0.0218307
0.0256048 2.1893 0.0198453
0.0146857 2.18514 0.0294335
0.0173731 2.16811 0.0286127
0.0415572 2.08995 -0.0184891
0.0407974 2.11131 -0.0205658
0.0377272 2.18408 -0.0218427
0.0372845 2.18422 -0.0165849
0.0130633 2.17409 -0.059801
0.0205964 2.17874 -0.0508353
0.0334978 2.17501 -0.0356247
0.0297599 2.15759 -0.0402597
0.0259647 2.17036 -0.0445904
-0.0287354 2.26043 -0.0649505
-0.0287354 2.26043 -0.0649505
-0.023752 2.26039 -0.0645324
-0.0200565 2.2851 -0.0640583
-0.0126571 2.32956 -0.0631423
-0.020149 2.33951 -0.0637053
0.00476787 2.33933 -0.0616147
-0.0437085 2.29995 -0.0544123
-0.0350637 2.27032 -0.0618675
-0.0360186 2.27031 -0.0610606
-0.0322829 2.3198 -0.0639675
-0.0399644 2.34449 -0.0573513
-0.0646318 2.29961 -0.0112717
-0.0634669 2.32443 -0.0225461
-0.0632403 2.28013 -0.0299078
-0.0639438 2.2948 -0.0199794
-0.0633777 2.33429 -0.0225712
-0.0631921 2.2161 -0.0372194
-0.0642559 2.26027 -0.0198917
-0.0636726 2.25543 -0.0273537
-0.0502486 2.3142 0.0197019
-0.0575616 2.30948 0.0111899
-0.0586719 2.2802 0.0107226
-0.0605871 2.32909 0.00704562
-0.0624558 2.22656 0.00779706
-0.0631111 2.24123 0.0065985
-0.00834528 2.31408 0.035043
-0.0145806 2.3093 0.0346541
-0.0307826 2.30459 0.033429
0.0322159 2.25175 0.0117562
0.0307107 2.31428 0.0105245
0.0255885 2.32868 0.0142751
0.00958563 2.31897 0.028183
0.00935406 2.32859 0.0279935
0.0378516 2.20274 -0.0299602
0.0366506 2.24646 -0.028949
0.0348047 2.29496 -0.0217349
0.0342286 2.28023 -0.0104447
0.0317377 2.3335 0.00297222
0.0129279 2.21637 -0.0590937
0.0144983 2.27039 -0.0559378
0.00938125 2.33931 -0.0603407
0.0103428 2.32946 -0.0594389
0.0116909 2.29503 -0.0586697
-0.0158914 2.47784 -0.0561482
-0.00199731 2.45769 -0.056054
-0.00115184 2.42816 -0.0575714
0.00432478 2.49679 -0.053413
0.00645672 2.47705 -0.0542945
0.00517025 2.46726 -0.0549303
0.004619 2.41812 -0.0576219
-0.0520484 2.41853 -0.041421
-0.0453778 2.42852 -0.0462917
-0.0365629 2.47307 -0.0503075
-0.0416064 2.45818 -0.0471913
-0.0427012 2.47788 -0.0447438
-0.0622738 2.39824 -0.00891466
-0.0586928 2.48638 -0.00955666
-0.0604987 2.43277 -0.0136682
-0.0585277 2.49602 -0.00688647
-0.0572306 2.49687 -0.0221607
-0.0580768 2.48202 -0.0191163
-0.0595698 2.45244 -0.0153775
-0.040452 2.41598 0.0296044
-0.0427354 2.41621 0.0269052
-0.0470499 2.47957 0.0210734
-0.0466196 2.4408 0.0220321
-0.0472443 2.44571 0.0212375
-0.0403941 2.44502 0.0293352
-0.0402576 2.44985 0.0294403
-0.0500944 2.47988 0.0174744
-0.00278228 2.36707 0.0351699
-0.00655091 2.43437 0.0361534
-0.0023535 2.48219 0.0374274
-0.00843522 2.46801 0.0366452
-0.00157853 2.45338 0.0369362
-0.0200637 2.47802 0.0358658
0.0183244 2.46315 0.0237119
0.0158182 2.47748 0.0262918
0.0108389 2.44383 0.0294142
0.00338738 2.49163 0.037252
0.00719588 2.37666 0.030326
0.0338194 2.46495 -0.0166424
0.0331061 2.49326 -0.00638366
0.0327367 2.43545 -0.00575284
0.0327792 2.44987 -0.00532309
0.0323093 2.42558 -0.00133972
0.0313539 2.43934 0.0108391
0.0314678 2.44421 0.00980744
0.0315825 2.4155 0.00659812
0.0163407 2.49603 -0.0456721
0.0254183 2.46598 -0.0361599
0.0246199 2.44663 -0.0379161
0.0300223 2.48495 -0.0299049
-0.0177236 2.63156 -0.0427264
-0.00873028 2.6355 -0.0415756
-0.008593 2.63979 -0.0411562
-0.00236284 2.62664 -0.0418657
0.0121742 2.59597 -0.0435212
0.00567822 2.56615 -0.046914
-0.0460121 2.54539 -0.0340465
-0.0430171 2.56688 -0.0335781
-0.0475964 2.57532 -0.0285174
-0.0472223 2.60959 -0.0240414
-0.038021 2.63553 -0.0282092
-0.0366959 2.60131 -0.0341186
-0.0557968 2.5519 0.00439766
-0.0524719 2.59117 -0.00385866
-0.0521126 2.61583 0.0123682
-0.0504692 2.62936 0.00335459
-0.0514516 2.61637 0.00463341
-0.048977 2.63464 -0.0106996
-0.0365769 2.5108 0.0332219
-0.037963 2.5539 0.031558
-0.042317 2.56731 0.026406
-0.0349491 2.62653 0.0350741
-0.0340596 2.58778 0.0361486
-8.80094E-4 2.55632 0.0411617
-0.00662097 2.58217 0.0421158
-0.00757778 2.58648 0.0422749
-0.00350559 2.60766 0.0438018
-0.0131129 2.58671 0.0418175
-0.0116107 2.62934 0.0443225
-0.0127178 2.62939 0.0442311
0.0212007 2.61618 0.0329428
0.0125031 2.58613 0.0376392
0.0140053 2.62876 0.0401443
0.0110009 2.54349 0.0351343
0.0155492 2.55213 0.032052
0.0117002 2.53925 0.0341671
0.0372837 2.63583 -0.00884909
0.0359492 2.61798 0.00101784
0.0361412 2.62232 2.08563E-4
0.0352665 2.58809 -0.00105197
0.0352727 2.59647 0.00174934
0.0340295 2.5745 0.00911066
0.0332709 2.56969 0.0165498
0.0346302 2.62108 0.0178881
0.0335604 2.57831 0.0160362
0.0357727 2.63459 0.00883041
0.0330666 2.54858 0.0117564
0.0196662 2.63824 -0.033314
0.0229698 2.62496 -0.0301809
0.0310091 2.59823 -0.0222226
0.0319095 2.6067 -0.0206454
0.0320017 2.61098 -0.0202797
0.0360213 2.59762 -0.0163006
0.030711 2.55104 -0.0253985
9.71344E-4 2.7452 -0.0313519
0.00697575 2.7324 -0.03193
0.00266919 2.72394 -0.0330164
0.0127005 2.7621 -0.0289163
0.0154371 2.74083 -0.0304931
0.00806634 2.67714 -0.0365379
0.00829406 2.68989 -0.0354341
0.0134116 2.6856 -0.0353639
0.00859769 2.70689 -0.0339624
-0.0406059 2.67762 -0.0209891
-0.0408346 2.74075 -0.0133941
-0.0318824 2.76203 -0.0184788
-0.0282858 2.73688 -0.0244737
-0.0451504 2.73538 0.00861928
-0.0448066 2.76051 0.0205597
-0.0451861 2.75618 0.0223755
-0.0440476 2.76917 0.0169281
-0.045302 2.75197 0.0210774
-0.0436083 2.76937 0.0117382
-0.0456139 2.71853 0.00342691
-0.0444194 2.73987 0.00265159
-0.0268179 2.68599 0.0449262
-0.0384082 2.77285 0.0316174
0.00506831 2.67195 0.0477214
-0.00562384 2.70679 0.0484075
0.00238094 2.74147 0.0506709
0.00739109 2.73274 0.0506965
-0.00904497 2.74156 0.049707
0.0219682 2.7591 0.0420293
0.0140648 2.72417 0.0464272
0.0142194 2.69379 0.0443115
0.0373599 2.74293 0.00766966
0.0373393 2.76021 0.0107493
0.0368921 2.72975 0.0110689
0.0370266 2.7644 0.0151522
0.0362382 2.72513 0.018084
0.0357187 2.75517 0.0291824
0.0357237 2.67734 0.0163621
0.0350982 2.68571 0.0251679
0.0242533 2.74433 -0.0209318
0.022973 2.753 -0.0218879
0.0256946 2.75717 -0.0183863
0.0314557 2.71815 -0.0140837
