ply
format ascii 1.0
comment VCGLIB generated
element vertex 1040
property float x
property float y
property float z
element face 0
property list uchar int vertex_indices
end_header
1.0319275 10.2226 2.1014800000000005
1.283385 10.501149999999999 2.2487000000000004
-0.0620669 0.116881 -0.188234
-0.17950075000000001 0.19210424999999998 -0.08106027499999999
-0.1068692 0.06619598166666667 -0.15988266666666667
-0.183356 0.21495066666666665 0.06102485555555555
-0.07537178333333333 0.11814476666666668 0.17263316666666667
-0.071939212 0.20844788000000003 0.17840664
0.1392955 0.03500948333333333 0.13102049999999998
0.19105899999999998 0.04181702666666666 0.025864684444444442
0.191285 0.0612668 -0.0728061
0.082502225 0.10645922499999999 -0.18637425000000002
0.125027 0.0 -0.145359
-0.12421677777777779 0.47671455555555553 -0.11754679999999998
-0.154157 0.401246 -0.0931818
-0.08732289333333333 0.3244766333333333 0.15623769999999998
-0.1575235 0.39302325 0.097105825
-0.10052965999999999 0.44630055 0.14463355
0.056435012 0.4768596 0.18406716
0.17431455555555556 0.34928022222222227 -0.0895255
-0.16564155555555554 0.5973327777777777 0.002585834444444445
-0.04513966714285714 0.6338168571428572 0.1819786857142857
-0.15326 0.572987 0.0932611
0.016502258333333332 0.7299645833333333 0.18343866666666667
0.16528135 0.7675377 -0.092375995
0.193528 0.604189 0.0533708
0.09757635625 0.8962828125 -0.151227375
-0.15940394444444442 0.8724468333333333 0.02925802222222222
-0.166678 1.08844 -0.0649406
-0.06321135 0.9414480000000001 0.162177
0.1280665 1.473515 0.0460319
0.119262 1.357955 0.0860558
-0.0402033 1.4954475 -0.186112375
-0.004858455 1.466555 -0.1835425
-0.20379005000000003 1.7293005000000001 0.046202104
-0.150602 1.67515 0.101922
0.11427365000000002 1.5730945238095235 0.0064810909285714265
-0.07612205 1.863655 -0.214785
-0.10864190833333331 1.6839649999999997 -0.19963541666666668
-0.24250244000000004 1.8584848000000003 0.010470552000000001
-0.199495 1.92023 0.0686044
-0.158024 1.79402 0.100199
0.0045449455 1.85691 0.065702475
-0.17276480000000002 2.1009880000000005 0.07720406
-0.019282575 2.11073 0.01897565
-0.0149287 2.04701 -0.170032
-0.21480099999999996 2.5362 0.05565188499999999
-0.1314485 2.6298899999999996 0.0267474175
-0.1106817357142857 2.6749509523809523 -0.10227449285714285
-0.2393225 2.901395 0.09647415
-0.4318615 3.20674 -0.10167185000000001
-0.51274332 3.3404788000000005 0.045674279600000006
-0.48317025 3.2050083333333332 0.028913183333333335
-0.25197125 3.33025375 0.026432581249999997
-0.2243673333333333 3.2151699999999996 -0.02618281
-0.4635695 3.742063 -0.055054700000000005
-0.4961426666666666 3.5939116666666666 -0.054150783333333334
-0.560058 3.60857 0.0909034
-0.47448460000000003 3.4794345 0.14580880000000002
-0.31409516666666665 3.596844375 0.013078205208333332
-0.572722875 3.7255695833333333 0.020951945416666666
-0.5435423333333333 3.7935566666666665 -0.02683373333333333
-0.58758024 3.9133335999999996 0.15287924
-0.50061764 3.7457896000000006 0.18317944000000003
-0.36672935 3.784032 0.13219489999999998
-0.6103966666666667 4.298125833333334 0.027564679166666665
-0.6143696666666667 4.474629999999999 0.24326499999999998
-0.48193753061224487 4.270970408163265 0.18923057142857144
-0.6249863095238095 4.712911428571428 0.060738826190476186
-0.7099442000000001 4.5804339999999995 0.08288884000000002
-0.6286746000000001 4.588183300000001 0.25119872
-0.6658810666666666 4.739327999999999 0.26278726666666663
-0.5419229999999999 4.6931525 0.160352
-0.5276445000000001 4.6216349999999995 0.1306685
-0.702929 4.9332 0.0845986
-0.7324489999999999 4.87735 0.25994433333333333
-0.6413715833333333 4.990099999999999 0.2631364583333333
-0.6010791666666666 4.873908333333333 0.13110533333333332
-0.8395943333333333 5.28352 0.2532753333333333
-0.6477685333333333 5.128615888888889 0.1504705888888889
-0.829944 5.38614 0.161994
-0.8548475 5.372795 0.25585650000000004
-0.758118 5.52484125 0.18274425
-0.796447 5.70798 0.19148549999999998
-1.23749 6.78572 0.387512
-0.155211 1.2199 -0.0703887
0.05724449 1.3080751428571429 0.16035165714285715
0.15564899999999998 1.5747966666666664 0.16072733333333333
-0.02195313 1.852165 -0.08747964999999999
0.24105625 1.6890787500000002 0.0066565062499999985
0.22289140000000002 1.957208 0.1613726
0.258731 1.789425 0.04366375
0.18481324999999998 1.87371125 -0.10294258125000001
0.27976775 2.0150275 0.11423335000000001
0.18832949999999998 1.992785 -0.09364005
0.272014 2.06948 -0.0364419
0.145979 2.32111 0.234623
0.266303 2.45058 -0.0350602
0.11346674999999998 2.753515833333333 0.18544308333333331
0.18883149999999999 2.644477 0.27746185
0.34600725 2.784955 0.284165375
0.3269625 2.6750741666666666 0.2636624166666667
0.403724 2.81191 0.227632
0.36917750000000005 3.0532909999999998 0.3439424
0.428507125 3.0682106250000003 0.2984636875
0.25307466666666667 3.3431633333333335 0.12227196666666665
0.2144625476190476 3.2270304761904764 0.31620530952380954
0.23941625 3.3692875000000004 0.37596250000000003
0.29180233333333333 3.0896 0.37719033333333335
0.26464 3.59449 0.300239
0.2452305 3.474615 0.374607
0.3641696666666666 3.4802 0.45519983333333336
0.4919975 3.5056749999999997 0.283581
0.47249703333333337 3.913099 0.3091953666666667
0.374814 3.7546049999999997 0.5020245
0.3759615 3.88271 0.5186025000000001
0.5442565 3.8056 0.4120425
0.37284731249999997 3.987136875 0.34300537500000006
0.38281624999999997 4.164645416666667 0.5323543749999999
0.47322161111111116 4.1713958333333325 0.5824165277777777
0.49666996969696964 4.025029393939394 0.5525808030303031
0.38993483333333334 4.246252499999999 0.4631886666666667
0.504435 4.437725 0.641286
0.5950894 4.447808666666667 0.45321213333333327
0.5922324999999999 4.69048 0.4843805
0.6216373541666667 4.558563333333333 0.4857767916666667
0.48870516666666663 4.572947499999999 0.467304
0.5042049166666666 4.8566666666666665 0.66876275
0.6845455 4.862195 0.6709985
0.634976 5.265976666666667 0.6224916666666666
0.7172395 5.288655 0.7906195
0.6507451142857142 5.540850857142858 0.7088324571428571
0.6684125000000001 5.668395 0.8438295
1.110175 6.52006 0.964369
1.02725 6.40387 0.85024
1.1569200000000002 6.783887999999999 1.0714240000000002
-0.111597 2.74669 -0.135431
-0.13374433333333333 2.827083333333333 -0.23561366666666667
-0.3537433666666666 2.658174333333333 -0.22743726666666664
-0.302808 2.53463 -0.24693199999999998
-0.14607 2.924576666666667 -0.26267666666666667
-0.2361778333333333 2.8239566666666662 -0.335253
-0.4024612000000001 2.9408244000000003 -0.29613972
-0.3921753333333333 3.21439 -0.22952399999999998
-0.20977344000000003 3.2080523999999997 -0.24463136
-0.229477 3.342193333333333 -0.4011553333333333
-0.3442108125 3.3559674999999998 -0.4731074375
-0.3544849642857143 3.188981428571428 -0.4222557857142857
-0.429379 3.10634 -0.335207
-0.43287050000000005 3.2248175 -0.26304574999999997
-0.44171699999999997 3.62447 -0.309317
-0.270547 3.48132 -0.464386
-0.277118 3.74081 -0.482779
-0.4021915 3.9286166666666666 -0.6135358333333334
-0.5332656160714285 4.158149017857143 -0.4981431428571429
-0.3990682 4.1587950000000005 -0.44486005
-0.574889 4.309593333333333 -0.5755936666666666
-0.5572528 4.186502 -0.5538440000000001
-0.5802505238095237 4.579822857142857 -0.5781018571428572
-0.5112173333333333 4.69335 -0.5824309999999999
-0.7208835 5.264185 -0.8913225
-0.6999599999999999 5.40972 -0.760455
-0.731251 5.31991 -0.724903
-0.849808 5.46244 -0.873901
-0.76500075 5.676127277777778 -0.9430661944444445
-1.03906 6.552065 -1.14114
-1.3327280000000001 7.48484 -1.4278700000000002
0.27458775 2.414675 -0.05329995
0.200039 2.474875 -0.0689521
0.11979553333333333 2.7726280000000005 0.044533316
0.3234240625 2.677621875 -0.05489041875
0.41614850000000003 2.9109975 0.048294134375
0.31872675 2.86183 -0.07301302500000001
0.3134458333333333 3.088255 -0.09042961666666667
0.258364 3.38506 -0.0541132
0.2076502222222222 3.2368499999999996 0.012488811111111112
0.2797300833333333 3.6325733333333337 0.05038607499999999
0.518349 3.6239778571428567 0.007998288095238093
0.5249681 3.773144666666667 0.06052585033333333
0.4733825679012345 3.6064019753086427 -0.08069273827160493
0.371161 3.85223 0.1088
0.43969255999999995 3.8919224000000003 0.11190636000000001
0.5321560000000001 3.85587 0.06853195000000001
0.5568078888888888 3.9103466666666664 0.013565573333333334
0.553875 3.88499 -0.0471382
0.526926 4.06562 0.0835537
0.44984608000000004 4.438809600000001 0.022631240000000004
0.7643995555555555 5.126347777777777 -0.15633133333333332
0.7810045 5.203905000000001 -0.01107455
0.812968 5.13614 -0.0265769
0.8531595 5.267431666666667 -0.034464016666666666
0.8822002499999999 5.6482 -0.200368125
0.7962617499999999 5.4864875 -0.14770730833333334
0.959834 5.44286 -0.1323575
1.08952 5.79913 -0.185988
1.213288125 6.48511125 -0.243094625
1.1958425 6.442270000000001 -0.164678
1.3082225 6.580712500000001 -0.16441475
1.30591 6.412105 -0.2223565
1.3662675000000002 6.683082499999999 -0.177006
-0.5688715 4.581189999999999 -0.747758
-0.5291193333333333 5.641845999999999 -1.028231
-0.5853196666666666 6.3987799999999995 -1.1149
-0.5925628571428572 6.642078571428571 -1.282975714285714
-0.5436079999999999 7.739566666666666 -1.42267
-0.5818172857142857 7.7219614285714275 -1.4224742857142856
-0.5666205000000001 8.805953 -1.530802
0.609678607142857 5.141246607142857 0.006656970089285714
0.5122955625000001 5.256808125 -0.110858775
0.60677376 5.249318 0.015727548
0.51075835 5.513643500000001 -0.10131257
0.5146299999999999 5.7906625 -0.07329279999999999
0.537473 5.831 -0.0198308
0.53235394 6.3243574 -0.09136999000000001
0.5260773333333333 6.047966666666666 -0.0925364333333333
0.6823435 8.28022 0.09722420000000001
-0.8123903333333333 5.933436666666666 0.21502466666666667
-0.8793906 6.22067 0.398853
-0.823924 6.47041 0.374471
-0.91007075 6.365530000000001 0.3744055
-0.9035693055555555 6.627071018518518 0.4004137962962963
-0.9313646666666666 7.72134111111111 0.5986232222222222
-0.959817 7.89248 0.630408
-0.932255 7.65096 0.637293
-0.9557295 7.948398999999999 0.6834918999999999
0.662138 6.12913 0.941121
0.728837 6.371768 1.062576
0.6728195 6.4706600000000005 1.03603
0.732259 6.70783 1.03988
0.7618981666666667 7.5466083333333325 1.3058166666666664
0.8147076666666667 7.987453333333333 1.5122766666666667
1.36919 7.485983333333333 0.9885639999999999
-1.24947 7.52182 -1.13921
-1.24581 7.46532 -1.13316
-1.2257366666666667 7.421663333333333 -1.1307966666666667
-1.23271 7.556065 -1.1709550000000002
-1.20753 7.37741 -1.13045
-1.4712385714285712 8.536665714285714 -1.2918928571428572
0.6846435833333332 7.5492825 -0.19904349999999998
0.681509 7.81661 -0.181393
-0.9076143999999999 7.042998000000001 0.3432774
-0.9906656666666667 7.4426966666666665 0.3870423333333333
-0.9953857500000001 8.010110000000001 0.39981900000000004
-1.0474519999999998 9.047830000000003 0.3554778
0.677883 8.74586 1.60442
-0.7829266500000001 4.035475 0.05816846
-0.755577 3.95645 0.0978749
-1.0314925 4.16108 0.152122
-0.998472 4.129045 0.081868
-1.020961 4.0724350000000005 0.08944915
-1.0765475 4.082385 0.12176695000000001
-1.584825 4.239765 0.17873050000000001
-1.8450660000000003 4.1569780000000005 0.19208340000000002
-2.075633333333333 4.143151666666666 0.2506993333333333
-2.16176 4.08703 0.204613
-2.144675 4.0758278571428574 0.24855110714285714
-2.51024 3.96707 0.277068
-3.404745 3.4826699999999997 0.36497599999999997
-3.5385666666666666 3.3809966666666664 0.36899133333333334
-3.7203646666666668 3.250919666666667 0.39068460000000005
2.211325 4.92589 1.5582099999999999
-0.48221 5.35572375 -1.0846125
-0.23966433333333328 5.4628966666666665 -1.7569666666666666
-0.17941700000000002 5.516379333333333 -1.8844433333333335
-0.11462655000000001 5.4622850000000005 -1.932461
0.21329414285714282 5.301532857142857 -2.611804285714286
0.4280944 5.032336000000001 -3.1624540000000003
0.5441 4.885425 -3.44053
0.5004713333333333 4.944333333333333 -3.3561466666666666
0.669713171875 4.666268124999999 -3.7569621875
0.6875327499999999 4.65239 -3.7901925000000003
-0.8717380666666668 6.196622000000001 0.5713018666666667
-0.76951 6.20505 0.637905
-0.7981294999999999 6.56603 1.025175
-0.832297 6.52166 1.05977
-0.831974 6.66023 1.2433
-0.83415225 6.76467 1.5176025000000002
-0.7813650000000001 6.656124999999999 1.34399
-0.786535 6.817433333333334 1.9332933333333333
-0.931252 6.992801666666666 2.4643249999999997
-0.8920220000000001 6.973890000000001 2.38799
-1.07998 7.08863 2.69022
-1.38218 7.245305 3.218035
0.8643226515151515 7.053226363636363 -0.24707227272727275
1.0683399999999998 7.25262 -0.29006299999999996
1.10042 7.190675000000001 -0.279308
1.043285 7.15493 -0.321745
1.2857304166666665 7.339587916666667 -0.30482108333333335
1.3421175 7.3913184375 -0.3385541875
1.34955 7.39023 -0.31705
1.93508 7.489000000000001 -0.43205899999999997
1.98384 7.477205 -0.46295
2.0551199999999996 7.523134000000001 -0.4516297
2.539484 7.541282 -0.5753859
3.2634366666666663 7.559223333333333 -0.5873393333333332
-1.3537249999999998 7.277085 -1.0515599999999998
-1.406995 7.226255 -1.04383
-1.75975 7.48864 -0.855496
-1.82196 7.55654 -0.866252
-3.1608616666666665 9.925301666666666 1.1743883333333331
-3.1924 9.92969 1.19376
2.164425 8.90212 1.85454
2.442195 9.15692 2.05138
-2.71668 10.01257 -2.3855899999999997
2.3583133333333333 9.263102222222223 -0.8054018888888888
-0.536142 9.43075 -1.67917
0.956783 10.2344 0.495849
1.05792 10.53 0.627924
1.256195 10.923425000000002 0.73221975
0.948646 9.29359 2.24238
2.4029220000000002 10.523040000000002 1.3157480000000001
2.4248399999999997 10.58545 1.326015
-1.5284934285714284 8.762566476190475 -1.3020407619047618
-1.59018 8.98605 -1.30796
-0.5571835 9.446655 -2.57057
-0.5307066666666667 9.507053333333332 -2.6121666666666665
-0.52563275 9.9826975 -3.3114425
2.43681 9.15936 -0.198443
2.61695 9.55273 0.0935119
2.8346486666666664 9.872851333333333 0.2726762
-1.1997393749999998 10.96234375 1.04430875
0.811549 10.2363 2.07992
1.5785199999999997 2.958373333333333 -1.4467533333333331
1.7807199999999999 2.6736449999999996 -1.7739583333333333
1.827445 2.5624599999999997 -1.89711
2.010658333333333 4.825013333333333 1.6344775
2.08788 4.81541 1.62385
2.1345883333333333 4.798961666666667 1.7694433333333333
2.05982 4.76019 1.70346
2.1993116 4.707160600000001 1.8527322
2.1656933333333335 4.683146666666667 1.8796966666666663
2.27168 4.620316666666666 1.9608333333333334
2.7998149999999997 4.0723275 2.68279
3.37246 3.66591 3.0256
3.949396666666667 4.214246666666666 2.2182066666666667
4.053207499999999 4.120945000000001 2.294685
4.113115 4.0704899999999995 2.33885
2.9690008333333333 3.5750237499999997 3.2793154166666665
2.9828566666666667 3.53713 3.324156666666666
-0.36579732 5.6945312 -2.1298944000000004
-0.4268497777777778 5.69747 -2.2688966666666666
-0.398401 5.69924 -2.394565
-0.46248825000000005 5.68953375 -2.45759375
-0.432536 5.73979 -2.50418
-0.556948 5.655398333333332 -2.956526666666667
-0.555663 5.68517 -2.88203
-0.389299 5.54772 -3.70451
-0.37477699999999997 5.5088349999999995 -3.7844158333333335
-0.312886375 5.445494999999999 -3.95937875
1.29295 7.6669350000000005 -0.583286
1.847031111111111 8.976074444444443 -1.5718088888888888
0.029684824999999998 8.343967499999998 2.8416175
9.68E-4 8.46331 3.37214
0.5889295625000001 8.58130125 2.204694375
0.4756451666666666 9.04682 2.6486566666666667
0.5205715 9.45691 2.845695
-0.29534499999999997 8.27784 3.1848650000000003
-0.3485415 8.2616575 3.30567
-0.431407 8.229693333333334 3.4965716666666666
-0.435824 8.22507 3.5145
1.2034 8.62636 3.09982
1.2362856 8.6292132 3.2983096000000005
1.25615 8.622544444444443 3.420536666666667
0.424861 9.27466875 2.84842
0.3564853333333333 9.37838 2.97547
-0.9156363095238094 9.76041238095238 -2.619970476190476
-0.976904 9.98335 -2.66747
-1.0453444444444444 10.211733333333333 -2.729121111111111
-0.7639632380952381 9.390625238095236 -2.6665542857142857
-0.7597745 9.43702 -2.7049849999999998
-0.7458442222222221 9.579226666666667 -2.8895733333333333
-0.7567478888888888 9.790053333333333 -3.106304444444444
-0.0124235 8.93321 -3.45114
-0.037180649999999996 8.93288 -3.586455
-0.09868974999999999 8.91691 -3.8688149999999997
-1.093783333333333 9.507852 0.4024511333333334
-1.12713125 9.640528750000001 0.38984512499999996
-1.581067 10.05764 0.3860382
-2.0937799999999998 10.570250000000001 0.44908400000000004
-1.1376099999999998 10.198 0.19684933333333335
-1.1912449999999999 10.4682 0.1263445
-2.58125 10.060026666666666 0.5541263333333333
-2.63225 10.2736 0.623765
-2.6531655 10.35861 0.6475226999999999
-2.7651125 10.178799999999999 0.41718500000000003
-2.8542 10.2635 0.381305
-2.07176 9.28325 -2.25726
-2.5597 9.51774 -3.17597
-2.5725474999999998 9.527645 -3.2052924999999997
-2.6487266666666667 10.259766666666668 -2.5201000000000002
3.0252433333333335 9.82137 -1.0784150000000001
3.4313975 10.053325 -1.1923724999999998
2.2468624999999998 9.638562499999999 1.038415
2.7627622222222223 9.887093333333333 1.0506866666666665
-2.1533249999999997 10.185424999999999 -1.50927
-2.18155 10.2624 -1.50077
-2.2103900000000003 10.318575 -1.491695
-0.9308158333333334 9.213756666666665 -2.5669983333333333
-1.25355 9.231819999999999 -2.87099
-1.4680414285714285 9.145129428571428 -3.368930857142857
-1.61416 9.03431 -3.6248899999999997
-1.0035535000000002 9.320336666666666 -2.7603400000000002
-1.0225351666666667 9.355995 -2.8548883333333333
-1.0577322500000002 9.40213 -2.953355
-0.16188566666666665 10.3097 -3.04037
-1.83952 9.20788 -3.48641
0.8885945 10.73515 -0.868393
0.8813022500000001 10.828025 -0.88597175
0.876172 10.9399 -0.903539
2.930416666666667 9.224413333333334 -0.41652008333333335
-0.7999159999999998 9.50946 1.0663999999999998
-0.666347 9.73673 1.24146
-0.56313725 9.8459775 1.3985525
-0.3872943333333333 10.143266666666666 1.9631733333333332
-0.214035875 10.25265 2.31560625
-1.1654750000000003 10.418849999999999 1.57891
-1.24339 10.571733333333333 1.6944466666666664
-0.4368485 10.360975 2.24841
-0.45267599999999997 10.407350000000001 2.310385
0.4843134444444444 9.364482222222222 1.8180877777777777
0.416533 9.44347 1.85578
9.86E-4 9.738135 2.3210249999999997
-0.0069187499999999996 9.747035 2.341055
-0.1170945 9.861632499999999 2.5242925
-0.162983 9.907465 2.636085
-0.25432716666666666 10.005166666666668 2.940868333333333
1.13229 10.3336 2.15099
0.17491068 0.187864 -0.090988124
0.19089 0.261732 0.0170351
-0.17044581250000002 0.4861959375 -0.005544041249999999
0.1454308888888889 0.5030332222222222 -0.11663015555555556
-0.0755309 0.7446820000000001 0.16617275
0.136246 0.818082 0.133916
0.191423 0.7787634999999999 0.0367611925
-0.1653041111111111 1.0369563333333334 0.02708323222222222
0.130163 1.04239 0.122138
0.104234 0.948408 0.156547
-0.1140545 1.563 -0.192124
-0.179739 1.86934 -0.204487
-0.271086 1.93157 -0.0739728
-0.142581 1.91615 0.0931686
0.0180631 1.91491 0.0344769
-0.272874 2.19951 -0.182082
-0.20339225 2.26528375 0.0716555375
-0.10646785 2.5823025 -0.19718625
-0.30475199999999997 2.7705433333333334 0.09349066666666667
-0.431591 2.88261 0.0161086
-0.19478475 3.0798625 0.017691400000000003
-0.269891 3.4281 0.0314823
-0.29504 3.42234 -0.047603
-0.573255 3.68006 0.028134
-0.5308498888888887 3.5824122222222217 0.12838766666666665
-0.691812 4.35125 0.0955
-0.612869 4.29542 0.229847
-0.548117 4.446396666666666 0.233984
-0.532624 4.55797 0.0806462
-0.720268 4.71643 0.0853576
-0.724366 4.75767 0.244149
-0.664226 4.94851 0.0853104
-0.8487675 5.30813 0.21455800000000003
-0.679068 5.37524 0.236134
-0.686627 5.37046 0.18103
-0.965732 5.88884 0.226952
-1.09143 6.59649 0.37549
-1.2817633333333334 6.881806666666667 0.3758896666666667
0.1613215 1.3384800000000001 0.10990095
0.22687425 2.231775 -0.07321995
0.0684648 2.26757 -0.0345761
0.125853 2.30552 0.228374
0.23154133333333332 2.228095333333333 0.2177566
0.10000239999999999 2.6695199999999994 0.14320866666666665
0.2952133333333333 2.541046666666667 0.24866666666666665
0.162647 2.46786 0.257137
0.298959 2.87851 0.0456523
0.4143606666666666 3.244789999999999 0.385352
0.541699 3.82145 0.358923
0.449728 4.23248 0.375968
0.5660755 4.452135 0.640531
0.622857 5.25428 0.7938550000000001
0.799395 5.89495 0.756559
1.06467 6.59676 0.894779
1.09053 6.45885 0.908558
1.1601333333333332 6.871779999999999 1.0758766666666666
1.22724 6.81335 1.022365
-0.153637 2.71473 -0.0629411
-0.3131975 2.804035 -0.3360205
-0.43953525000000004 3.3265275 -0.26458275
-0.392759 3.71702 -0.312342
-0.286183 3.66444 -0.344046
-0.417653 3.92723 -0.611367
-0.9549615 6.454225 -1.04648
-1.10839 6.537115 -1.08877
-1.38065 7.51385 -1.40646
0.403747 3.05894 -0.0472193
0.254291 2.98231 -0.0893495
0.45158775000000007 3.3086875 -0.047986875
0.271346 3.54743 0.0717663
0.542834 3.80591 0.0376751
0.394593 4.30715 -0.026068
0.682307 4.64473 0.00467772
0.716476 4.81134 -6.19906E-4
0.7753574999999999 5.4094549999999995 -0.1354871
0.850988 5.36524 -0.0284539
1.38425 6.73361 -0.179242
-0.414268 4.69606 -0.69103
-0.49593 5.57984 -1.00817
-0.51046825 5.8135825 -1.0669575
-0.536621 6.66506 -1.28665
-0.54047 7.88591 -1.43803
0.5161106666666666 5.652316666666666 -0.10246813333333334
0.529693 5.65456 -0.015106
0.6539748750000001 7.1487468750000005 -0.02692206875
-0.9641685 6.780379999999999 0.372394
0.675681 6.29914 1.00689
0.675118 6.52665 1.04929
0.747967 6.78642 1.18734
-1.50185 8.75167 -1.28368
-0.671799 7.6364 -1.68636
0.684154 7.50808 -0.194142
-0.957025 8.18753 0.394841
-0.9596180000000001 8.22584 0.3513525
0.662401 8.77437 1.5859775
0.407647 3.18652 -0.0557751
0.538402 3.41667 -0.498573
-1.11894 4.08125 0.13153
-2.21001 4.10022 0.220498
2.45557 4.82382 1.63155
4.09015 4.36277 1.95183
-0.497087 5.28238 -1.15931
-0.173866 5.4644 -1.843
-0.07228275 5.4629650000000005 -1.990875
0.190706 5.32795 -2.50425
0.814651 4.43743 -4.07522
-0.794087 6.304 0.634988
-0.841273 6.29364 0.63237
-1.10111 7.08352 2.66306
1.12293 7.2172 -0.342141
1.4306695 7.3854705 -0.3114584
1.40484 7.35618 -0.315299
-1.49363 7.40812 -1.01103
-1.5222600000000002 7.3494175 -1.04423
-1.7553266666666665 7.5307900000000005 -0.8474550000000001
-1.79003 7.49787 -0.89216
-1.82741 7.49909 -0.846132
-2.76634 7.59479 -0.45546
0.631126 8.34764 2.00224
0.631761 8.32187 2.00977
-2.87544 9.84277 1.02122
2.1971 8.92176 1.85444
3.00749 9.55899 2.53847
-1.94279 9.14472 -2.0644
-2.43303 9.70121 -2.26756
3.00331 10.2294 -1.4001299999999999
0.7789211666666667 9.405161666666666 0.22115883333333336
0.802525 9.40428 0.232239
-1.23542 9.13095 1.07297
-1.811175 10.2327 1.7555425
1.21311 10.0333 3.31662
1.74188 8.891995000000001 1.010165
2.31802 10.2166 1.27176
2.387205 10.477250000000002 1.308835
-2.0853 9.97639 -1.63174
-2.3170574999999998 10.336 -2.003795
-0.7003775 9.1693 -2.38748
0.88121 10.3257 -0.723017
1.1076433333333333 10.648266666666666 -0.892069
1.35204 10.9334 -1.05362
2.602055 9.513905000000001 0.04994655
1.5069 3.02862 -1.38177
1.77711 2.8282749999999997 -1.5954199999999998
1.92841 2.73796 -1.66861
2.00311 2.69715 -1.69543
1.7504 2.73684 -1.71404
1.81249 2.60034 -1.85673
2.46338 4.48888 2.21137
2.59636 4.31471 2.4116
-0.357963 5.60768 -1.76352
-0.349388 5.63334 -1.85942
-0.422814 5.62847 -1.91579
-0.503055 5.60121 -3.25552
2.603135 8.093535 -1.29019
-2.60257 8.44067 -1.55492
-2.6162 8.41672 -1.55413
-2.85008 9.04601 -1.34697
0.073276 8.31272 2.75667
0.602815 8.50796 2.13731
0.481643 9.13052 2.72089
0.48449 9.30651 2.80695
0.545572 9.53766 2.86502
-0.948597 9.85524 -2.63471
-0.9496020000000001 9.87577 -2.645315
-1.05687 10.2581 -2.7412
-0.750405 9.72958 -3.03328
-0.763203 9.85251 -3.16787
-0.101939 8.91738 -3.88068
-1.08187 9.56558 0.393395
-2.18099 9.36625 -2.51472
-2.21948 9.38458 -2.57164
3.0829 9.85453 -1.08829
2.44182 9.73939 1.03208
2.76987 9.88435 1.04575
-0.845223 9.14902 -2.4684
-1.6476 9.01012 -3.68121
-1.35661 9.48595 -3.32667
-0.34153333333333336 9.835245 -2.813511666666667
-0.332421 9.86473 -2.81704
-1.57111 9.24992 -3.18024
-1.034115 9.599305 -3.30797
3.06205 10.3155 0.273301
3.92078 9.16066 -0.713707
3.97459 9.14505 -0.736452
-0.72926 9.63535 1.16858
-0.573332 9.81987 1.36748
-0.2223235 10.2458 2.300405
-1.1024 10.2544 1.42964
1.34343 10.5777 2.28922
0.6000471972636761 9.253786072829895 1.7373208675587382
1.3264088771195157 7.823802024773648 -0.7149479466196049
2.58011590514177 8.09042117449887 -1.2779908856251712
-0.7352203847500401 8.95689383671924 -2.2837152734720814
-0.7292300179793475 9.068321622201685 -2.38829172106342
-1.32205204747236 9.225862124169637 -3.0127293991779087
-1.490469301923437 9.52989289833996 -3.5123281507233863
3.526563162239057 9.264111519043764 -0.5621210222139451
-0.06417816603992793 9.807168777215756 2.405254083041015
1.8127987075410352 8.24805325873168 1.533562761211915
-1.0100375349221444 8.360483381549148 0.7858596875210127
0.867997128818461 8.648381347422196 1.8057857794836614
-0.6136054611647853 8.436751915392884 -2.0484198829770235
1.8045744829557682 7.860176965126618 -0.369902198899247
-1.0655471353778805 9.262377376326038 0.3948513545558662
-1.0878756816160409 9.647390097823454 0.8040881655668565
1.8939559992535797 8.473069734766517 1.6394131357187158
2.888649895186334 9.495202751527765 2.476943864168711
-2.1601151011970217 9.390311101280217 -2.1604337658970856
-0.5458184669054833 8.894674514215463 -1.5527571972758059
-0.5186780098367759 9.958830167217116 -1.9437100633432591
0.8864721780248052 8.801223343234003 1.9378789342374498
1.781557835936741 8.974636874588338 1.01530243732251
-0.7065787292318098 9.112309193400481 -2.3675750085467993
-0.46176005910508683 9.581488753140166 -2.702437518182136
2.4519203535305865 9.228285843762464 -0.12618515339585867
2.6717737125596797 9.628899974348125 0.1573439931735255
-0.897892118233912 9.636585701396921 1.0750924889542635
0.7522709428643389 9.789346291428153 1.913459794654929
-1.6381099528984011 8.521414131458506 -1.7411523584958302
1.8602317377635813 7.9793846493475336 -0.25899730140488353
1.851449864016037 8.044260923371546 -0.328018588973823
0.6536832902425628 8.788007469440227 1.6071414943035047
0.6664406261467392 7.775841652624848 1.4806027283650987
-0.1929139035152714 8.822541544545468 -2.856065151865943
-1.0270696307706544 8.945315937700714 0.3760990931247928
2.2454309252991216 8.946128612087165 1.8988830211736818
2.7166627701258883 9.347304604329153 2.3199659148672693
-2.6477288069801364 9.93911775298269 -2.361460859383515
2.7182161922747747 9.627531628227159 -1.023544021546001
2.843173967719384 9.823702948409853 -1.1473282905687274
2.8116002195013277 9.819515680690378 -1.157613068045954
-0.5669472010429587 9.337158042642853 -1.6508660840753355
0.8077279740878159 9.662488077135736 0.2963826185353954
0.9368176129024333 9.256490812323555 2.1964866363243822
0.9514724807808593 9.232990832466085 2.207732701334371
1.0656916275511568 9.559504744501547 2.584089452693762
1.7076907132089034 8.786325236665975 1.0121976480510038
1.860016374273552 9.189901752380973 1.025755770904374
2.151392619522229 9.67861599728142 1.0965712027944503
-1.6947835523102617 9.210531227203203 -1.3546692691634104
-1.6793951636287703 9.245755657566802 -1.3802981965379733
-1.779254703876036 9.504733015144605 -1.4388266550754418
0.7244715328102321 9.533934437520418 -0.41965790686533017
0.7539751962611269 9.550575335150763 -0.47313516688052387
2.7303786555167644 9.677531206119506 0.15860863602413774
2.7309557487365854 9.722043962499459 0.21532654968990195
-0.8486692436414786 9.321972402724368 0.9870528406251361
0.7987351045919069 9.841692388961635 1.9176210209765925
-1.628410127049639 8.153409971086665 0.46780006611403674
-1.5961304377268335 8.12954585139612 0.45761681932889514
-1.7293208612529474 8.426004045154327 0.49228355898123083
1.7326720269200078 8.105543168094032 1.4808950527393316
-1.5390310588485518 8.132253283831146 -1.573189629353728
1.9259546428977747 8.247621078055802 -0.48849111508636894
2.024258463546599 8.513935338807192 -0.5629576050791786
-0.5901106987285583 7.999154770211551 -1.439210846830892
-0.551002171981399 8.29493354884638 -1.4405119351544267
0.647283439186108 7.847980070647677 -9.667923643429388E-4
0.7229370334686165 8.2905611455121 0.05084160336104358
0.7274519644061306 8.851846833203012 0.15923399681790507
-0.9910212662139054 8.23741705100769 0.7207725769906995
0.7967946209896548 7.984867018671479 1.488273179433883
0.8877122489073744 8.674880360611553 1.8070308704260885
1.449966980554429 7.979122179118023 0.9903979418887016
-1.3382143681549852 7.870770606634824 -1.2067171381445172
-1.3968398693746122 8.15302511940157 -1.2460291748837844
-0.6681842400234385 8.236712647787131 -1.930652293043795
-0.6320540808824802 8.430688165256827 -2.0453319972893538
0.6995069062983728 7.820079115269879 -0.22573076612104606
0.6961097152998167 8.422572353774246 -0.2903048812238431
0.6874462394433137 8.639195286748311 -0.34988106593531265
0.717652976568363 9.075805330404146 -0.3649448693023678
-0.9918537064286316 7.882853097063775 0.38971069737934044
-1.0031102325820094 8.392183475548324 0.37578070885889503
-1.0107214943670972 8.529612547504668 0.3277289755210859
-1.017047566975004 8.70189672928723 0.38121119884083715
2.028793354361491 8.389841555737972 -0.29095013995360375
0.6918547044176512 8.400780631754978 1.5313017348237106
1.7914325022178126 8.173101125935766 1.5139890995285554
-1.5276031938689993 8.13379231531793 -1.5982209931961502
1.9357978710682366 8.297977706725888 -0.5014339127934216
-0.5648667630588039 8.117985278303514 -1.4221595202572492
-0.5580620830073643 8.540156563098185 -1.510087908787643
0.7551338837367122 8.8056770737433 0.12462024624824951
0.8231297238395907 8.006711144587412 1.482084384089479
1.446139097327386 7.945802145138141 0.9802009201268856
1.6042016511253585 8.49467509279749 0.9943827491928332
-1.4159830844555856 8.136222731134596 -1.2547380800389893
-0.6662444716932527 7.864816226778689 -1.743682362046353
0.6455079027792219 7.97643977882764 -0.23837755441617217
0.6624516537621352 8.274226217889645 -0.26825586811291574
-0.9850110956063272 8.235005726664058 0.3225666001356143
-0.9992977338482496 8.1587543060201 0.3804632744524065
-1.0340635751964928 8.384788624939823 0.37676907194590115
-1.0405842944801322 9.097527033112561 0.3963565545654772
-1.056217193065749 8.869255225246466 0.3807394109647308
2.0732067146632445 8.434383056095609 -0.2991845570217321
-0.9608959867985 8.425621538862249 0.8021106293108589
-0.9205085700206477 8.569036131548032 0.7832617117499319
-0.9141976410610806 8.809459895492061 0.8375639934474569
-0.9160129143664985 8.977602898637386 0.887874756471428
0.6629441271447827 8.6736654681481 1.5713136422838252
-1.5231871210668706 7.829637974632487 0.41733249035495684
-1.6489152042403084 8.17114154667908 0.45444035488872464
-1.843723977988963 8.717093375848535 0.5415084706538179
-1.7380703218458402 8.531707074110523 0.458345534139005
1.780884262775346 8.30700539426206 1.5511387483167378
1.86317668106247 8.406705360920444 1.5885841295561243
1.7866532148194076 8.241142482816247 1.5637218302547136
1.823704212728211 8.232811085232726 1.5490798273157287
1.8169860168645289 8.287329945916003 1.5326039289110656
-1.4580406438502749 7.863987386945102 -1.500030656510696
-1.488986476752278 7.9995420629341165 -1.57423942522703
-1.6306338055973235 8.405413160398133 -1.683439626953043
1.7298506954700403 7.834377583600654 -0.34608894297351533
1.8229441613747541 8.011887736983468 -0.38538303357369885
1.8464957968650044 7.990813693985623 -0.39920983138117117
1.925470500493924 8.247363102254473 -0.4848207099927294
1.9822773326836132 8.485914717684073 -0.5394032790835878
-0.591939673414694 7.85376972761671 -1.3825330611795064
-0.5687185645531415 8.115424003046462 -1.4418939299190305
-0.565565340563593 8.261485644937116 -1.4621913047577624
-0.5548137453926323 8.374134381624053 -1.4766501721705698
-0.549581440478175 8.431965707606977 -1.4951309105572306
-0.5859870718318847 8.497889374716868 -1.5044825399894182
-0.5558549333248721 8.667425538879508 -1.5301453780234793
-0.551406395327402 8.641321314685685 -1.505131735623911
-0.5287049009546456 8.687674935359572 -1.5191956448115727
0.6274153027642838 7.827776876154094 0.02068429400867448
0.6542033071366732 8.233188797429746 0.07119383940972228
0.6974157539436975 8.327764371886081 0.0665491645796914
0.7426241511023447 8.827007839203837 0.1354862033598471
0.7374047081890863 8.867121465898942 0.1536838463542198
-1.0423410504321118 8.142134006333574 0.747436620273125
-1.0059753242664096 8.020379944432378 0.6929710020294235
-1.0980802198553812 8.523828709748813 0.8558516952605144
-1.1231890795778205 8.514679042944016 0.9018828190815925
-1.2011437103712852 8.935491220842941 0.9990558382059925
-1.1557826138484795 8.726490466938616 0.9227463375422865
-1.162690137609843 8.836972679460903 0.9272192928849902
0.7811524373666069 7.842161701465663 1.413517588713889
0.7937065724260829 8.270162301119566 1.6325490941800962
0.8219924544597139 8.288579043933828 1.6536086807394588
0.8311884882737133 8.26366274888239 1.6459135047106395
0.8254548536748255 8.514637963034081 1.7840195173137616
1.4228860173061482 7.840412226691748 0.9822798468398719
-1.3306296794611545 7.839530216075898 -1.2736954934110518
-1.420854163892398 8.055063550841563 -1.2355576482965813
-1.473133503870117 8.396505796309816 -1.2460413752949722
-1.4727842459433458 8.684159753715015 -1.3164815423101248
-1.477152306127021 8.551303834265138 -1.2565106263844363
-0.7250373782075799 8.248701896513769 -1.8994652540123886
-0.6973456547417729 8.499415914792214 -2.0213888122087074
-0.6950902933289144 8.5190272177925 -2.0336428360109142
-0.7236676089061824 8.483133575184988 -2.022158856756309
0.6567430156723947 7.8467219600726565 -0.16857771232430868
0.6201864726448894 7.832584227584407 -0.2008199366360869
0.6035621231708622 7.843504008889589 -0.21444765221631895
0.679820654402832 8.122027636863029 -0.23864869268958927
0.6976588817070922 8.097713524771937 -0.263570541026579
0.6350986464275883 8.113908597957344 -0.2495137570668112
0.7112045079457244 8.977848484098663 -0.34865829482868993
-0.9397120013022784 7.9642376726145345 0.39441657393568896
-0.9883597008817424 7.998349672122175 0.340566902719057
-0.9471391721887247 8.249048208756182 0.3759122693008457
-1.030021095161817 8.947948711244576 0.34679938244759073
1.7858597275420671 7.80234003627271 -0.384496206814042
1.8133172457421671 7.890908655067754 -0.3084033792421748
1.8171992644475117 7.984334263127641 -0.3214891523175155
1.8492199730953207 7.962449842598304 -0.2719221916994358
1.8662817794471367 7.941793436568047 -0.3199059499983414
2.0314583148958887 8.41718671253725 -0.3294952343821974
-0.9835405637562024 8.10884541722991 0.6815027710035523
-0.9342000879729265 8.507607416153917 0.7912751427098382
-0.9104263505530836 8.832196894078505 0.8415302778984949
0.7398672748047559 8.125595376855786 1.4946408018001154
0.7371950061104929 7.976324972834856 1.4396979348227923
0.6941962534929984 8.159716993043077 1.5085586121035315
0.6796487116200001 8.565903328604223 1.5785521149084942
0.700494940148342 8.666510105813714 1.554055857727168
0.6161872182782722 8.296877080587183 1.9118167200916085
0.9100263445509271 8.504477352469989 2.4581876582292153
1.4513227535863313 8.722971712270855 3.167290492055682
-0.6749028248441532 8.158266595593245 -1.8726927334250647
-0.6398500461312738 8.171510064594932 -1.9140480606851167
-0.6492728162095384 8.313403764943805 -1.9783681594557594
-0.19646647910672582 8.794667213569427 -2.798989038550261
-0.14917957872081197 8.805510462495333 -2.9259967674018057
-0.15205799089462266 8.809550531960909 -2.930152099071103
-0.0735832792974375 8.843897969594078 -3.108034692656705
-0.050539445178620857 8.890580956119374 -3.218840033241593
0.028040030513263408 8.94925333764839 -3.436232527524545
-1.0592904886699397 9.574136559823204 0.7156074938105075
-1.9965521336669 9.100253078719831 0.555495104363876
-1.8188731815270727 8.92831700128665 -1.9460426728581113
-1.2833734875375382 9.265368529794243 1.0880152666022598
1.452074417076765 8.089292718017457 -0.9613079441135397
1.505265336721691 8.248073756327537 -1.0833068779496884
1.5505932935535534 7.773451415182182 -0.6911964833725929
1.773299234008211 7.878059313776731 -0.847720288045258
2.2755980915402825 7.983782211733581 -1.149016460013432
0.3238083282960888 8.242158732425942 2.171832180056107
-1.4808984342981484 7.879936599342996 0.4366507862469431
-1.5748443315334388 8.001482220868592 0.4573071903687484
-1.5592929053095972 7.972970354209322 0.43031659636040015
-1.6452304333990988 8.170230707494314 0.4290337796201438
-1.6627415153645386 8.2384188343823 0.4870131914404753
-1.7034358200984834 8.386244638926028 0.49136614487563046
1.8632917582156472 8.361293255381801 1.557521791506894
-1.5699009931773469 8.263058216221207 -1.6554610683380289
-1.5713854965717409 8.280699222909753 -1.6558566240408763
1.8019046601639663 7.853598053719533 -0.3881456667653954
1.847918356188949 8.135572313657581 -0.44841517957857874
1.953927022094721 8.369194911005826 -0.5204949885964381
-0.5629158081745294 7.990348115301965 -1.3898423832774
-0.5552723754262632 8.004439421945987 -1.4255973766524643
-0.5525562511938951 8.28299380788008 -1.4459641616896595
-0.5486075149771736 8.686446076413194 -1.5067156239085115
-0.5494454379258259 8.91168391061665 -1.5624066907001142
0.664637209650351 7.959586601330591 0.005090413032981727
0.6997136928389994 8.385762883104617 0.12027521848054297
0.7061766042167527 8.116293434658745 0.042719385639389
0.7248244953132965 8.43026855057622 0.11216988168126235
0.7436345279944483 8.586805883885358 0.09916669961759847
0.7224761490647261 8.602424002278761 0.11648973544546597
0.7029650115586634 8.66024674106505 0.13601599558755698
0.7190114814099281 8.671779752935265 0.07884178261871966
0.7532495407879205 8.927178378166401 0.15022989967070202
0.7650112445091752 9.169102318763537 0.17895473853220584
-0.99161504220226 7.852971553355383 0.6250718547241398
-1.012365177430928 7.862590305981338 0.6979626522099923
-0.9825805584431256 7.8630402004721915 0.6837385343974974
-1.0671015053367834 8.138677618194283 0.7528575528958401
-1.1149374714613276 8.544154858182099 0.8395147139269268
-1.1381513804656684 8.650606276555099 0.8861224434641806
-1.2055446929769358 8.928028669819343 0.9540118432145881
-1.181534465923335 8.89346197171284 1.01326279840194
0.7908834360504333 7.927053444661802 1.496302464301714
0.771865426168752 7.947345275815115 1.5437047220810554
0.8356843951762367 8.377773871776558 1.7059957527209182
0.8638400434336638 8.64550149387523 1.8094857740455526
0.8699864471770818 8.737671566976964 1.8848548836627927
1.4046597140323083 7.790035545182391 0.9616804348151089
1.3909430707616024 7.763417706281784 0.9802062099060611
1.4505442803129618 7.83331857273716 0.9542599341501264
1.553729527863271 8.209810830170285 0.972111783700845
1.5304613543548318 8.163231055405637 0.982672775257664
1.5037335294809868 8.12442458574419 1.0173629894716498
1.558270567733952 8.394281469552045 1.0062669760284335
1.668786137859702 8.682157117250085 1.0079313128346505
1.6664899344416257 8.764635066212003 1.0212286207875831
-1.3694106484694428 7.851484595033404 -1.2064658534652553
-1.387883997732236 8.132029079097624 -1.193257936046775
-1.4390465489451185 8.396070294392947 -1.2560007774331319
-1.4326573864792393 8.516719655580497 -1.2673757240824082
-0.6717583449006472 7.850548210447662 -1.7412961966938483
-0.6441772782021271 7.850701857870699 -1.8079477751954125
-0.6777785435575101 7.806463366518471 -1.7378347277087676
-0.6902807150879947 8.299578076914138 -1.903075051666971
-0.7052320197260283 8.2986673753467 -1.9423149470068395
-0.7286547804066149 8.276701641717402 -1.9198817440994038
-0.7053720871504755 8.382528463894058 -1.9778274600610162
-0.6229754085923906 8.659308561167878 -2.146366215253424
-0.7078625689369187 8.527602881731974 -2.021973863973468
-0.6878220584487266 8.545126439058155 -2.0317914533882377
-0.6966143083139417 8.478364699109997 -2.0373576427520472
0.6400971203336993 8.040733739487735 -0.2631620031840659
0.6725274291146669 8.702146915520542 -0.2928196709606351
0.6951878272985025 8.64677566860317 -0.33416396920263575
0.6378934971423909 8.51146732473044 -0.2824614055878593
0.6924501474941053 8.80021498512151 -0.3411056477127337
0.7401219344976449 9.222199347245665 -0.39001253407881264
0.7014921305061902 9.211109324645703 -0.38508162989411504
-0.9705167104774973 7.8705447641160315 0.40365032780656274
-0.9568555879313773 7.91121638820614 0.3876574127312418
-1.0218613707323074 7.903821790970176 0.3946137125350954
-0.9947225425459926 8.49848914117303 0.31765901793635365
-1.0238542194155595 8.992437777355754 0.38949635898741447
-1.0328671297610676 8.969247439472175 0.40129736013884265
-1.0358851775229423 9.095595289756956 0.3841473707256207
1.786276728303945 7.91146376298537 -0.34659924710435414
1.8406658761115553 7.879580638467486 -0.387377994087452
1.9635911296826727 8.264124368873278 -0.3350459317673798
1.9873350874287128 8.34589662522679 -0.3249443707295012
2.0075212292464006 8.397002723671815 -0.28942835512760146
2.0155831703219396 8.275247662374877 -0.2985012746383442
2.15589222009705 8.638445152635912 -0.2773945337733328
2.1523636778906243 8.640446729121658 -0.25778053970167114
2.0618875966949735 8.462495379224144 -0.2931288661494881
-0.9004360008133714 9.045912105530274 0.8823997022163074
0.756718233529047 7.977670063561127 1.482633779441898
0.7098680719546122 8.239782158544692 1.4980436199894662
0.7183461147345747 8.17659672920659 1.483191219389715
0.6916527837644645 8.489310719036574 1.5495631507354415
0.7107867375618022 8.415131950761667 1.552609151455152
0.6996899828930421 8.469782553082927 1.4961350623356742
0.6508098022412405 8.68640814042208 1.6283624491437971
0.6261181724043824 7.971685699209061 1.6817727243710114
0.6285904159089528 8.328406217867737 1.9128637301960314
0.9291390194084603 8.491182299844292 2.4310659257247185
1.1763741766961504 8.62553092000678 2.9748409082929954
1.257603508241841 8.654665256352605 3.042086419685876
-0.6781062663817 8.183462806261124 -1.8873651732179821
-0.5296672280138793 8.490610414891409 -2.1457666421655044
-0.3341015216797375 8.687403326406853 -2.4692452895234163
-0.22217160334449465 8.735538267350618 -2.6811620077153044
0.042737640316887565 8.96180273629994 -3.5345332154030795
0.06625172333749885 8.963715014537538 -3.460017188524507
-1.0661734191093755 9.266370305933354 0.4989782491876338
-1.0467275088226027 9.59021268482876 0.7015450287882983
-1.0853327569396716 9.652349468892643 0.7975096906223048
-1.1211231902032963 9.798516246613103 1.0174354532766343
-1.1093030828455928 9.780325042040825 1.051685204763018
1.8363019983522144 9.103900142833812 0.9956599019662256
-0.841645688575493 9.354072863640841 0.9991850897136023
1.5839229792914413 7.796521193354025 -0.7715421622276178
-1.863553636715697 7.8438912712172675 -1.134047843782103
-2.002107260653492 8.003711785324136 -1.1642988661667222
1.6286398142214424 7.847785655784649 1.3856614144681503
1.6391293465347032 7.885074658129658 1.4181735212640758
1.720570552045648 8.09270395593178 1.5352117180705624
0.6355205220184569 7.874402658785064 -0.002942992570007118
0.6404042551650179 7.9322358450776225 0.05036256392117913
0.6931039573601782 7.893591689442174 0.01353111698789244
0.73673762529298 7.987008391703035 0.02268394237616053
0.6142227263287178 7.842409294722232 -0.20658012145330137
0.6097805426802794 7.797664665877246 -0.19886312735639822
0.6167568460982801 7.839951100534643 -0.21466239785049124
0.5984054556439019 7.853942361062986 -0.16143924180433827
0.6261824281480393 7.942257253473489 -0.16434594167480443
0.6400055285686863 7.954926439848136 -0.1685994969784427
0.689454208673429 8.025215621615096 -0.2320506203440157
0.6985948350901305 7.7938785261745505 -0.22778729281533813
0.6718922869682981 7.831100423165693 -0.237805515861744
0.6294083639317374 7.804918667475341 -0.22717250616145057
-0.9336248594726758 7.806639739126586 0.40954057732468824
-0.928705820808797 7.843999134008762 0.3765847319073994
-0.9681101220557946 7.8027682280615736 0.335347711730821
-0.9339716516844402 7.803095986814023 0.3246711187181426
0.625154889279023 7.85150976866178 1.5692616118103613
0.6540240716579092 7.864866304008107 1.6153658141096425
0.6022610669885761 8.013416644097571 1.7130755475366932
0.05920244234685271 8.972938650312603 -3.525344544866079
0.06662395121087379 8.970696493014936 -3.5363941988400245
-1.1065293922011479 9.693226820695685 0.8619797761683934
-1.093316734688592 9.676836795541334 0.8203105780667677
-1.1791750589031231 9.931945938013389 1.190296550177555
-2.002985496881278 9.078547147880515 0.5575463253639302
-2.12665008440504 9.393200923420869 0.5746281161708672
-2.1615959639409694 9.475743928121899 0.5720054299143125
-2.230536966810261 9.527518322135524 0.5953259187767395
-2.4740537103196614 9.655048186824207 0.7696451688495504
-2.6687144257450957 9.730429742995234 0.899902733330434
-2.680179776096804 9.736505214794567 0.8978710858015939
-2.65155044664914 9.72892440435747 0.8888796806282009
-3.069990808241281 9.93723953971602 1.1223447083700595
1.9426707529889862 8.55875581964986 1.6986774414105144
2.0272926242954084 8.732824264422506 1.7474006867920835
2.1017784776217554 8.78842348816303 1.786638843799112
-1.6353407868921253 8.549968858955395 -1.748671786625843
-1.750962299044563 8.797944177000225 -1.872268187959041
-1.72867876909845 8.703814943654649 -1.8153065294223978
-1.8954916295264386 9.101890546187226 -2.0721824020129924
-2.29074453256321 9.490644517282957 -2.2010748296064704
-2.395117552636766 9.614989233187528 -2.232026376692375
-2.4415321808518065 9.692093790777072 -2.247930939156303
-2.606344980188587 9.911072635227741 -2.350523207214535
2.1387506719456426 8.789541862305162 -0.6333406570497951
2.6171829056706803 9.574807747648192 -0.9836235747635008
2.5448256049371745 9.506809992588016 -0.94285529929942
2.669011280243936 9.601128048361298 -1.0099627094973418
2.8657999829523346 9.943143392604838 -1.228646545651814
-0.5539620389243494 9.026072555613752 -1.5774380995592987
-0.5216535703960308 9.524043380156721 -1.7359907301600672
-0.5419008680786248 9.932712146178304 -1.9207465673188637
0.7810437812054621 9.254030925191225 0.17681401373427794
0.787340655114398 9.195872756896987 0.1580403623287882
0.7888030048157165 9.22175654989152 0.18665583697694937
0.7683553291136066 9.25640249598086 0.22246213772062556
0.8004852564261765 9.549592519073109 0.24735770750538796
0.8106057272499256 9.62361740891288 0.268501919400061
0.8355774598086444 9.77767896147179 0.32404496661402415
-1.2006692245030361 8.996905515053912 1.0055498933065299
-1.2258711535179263 9.04423027361209 1.0138126951198088
-1.233886314708533 9.127817594518772 1.0396044364193795
-1.3597717317871953 9.469235876914636 1.2423012734874563
-1.405297090158504 9.567192765080605 1.2751770478926574
-1.4119405741248021 9.563453774863133 1.2569798871248024
-1.522628716847264 9.807418425942329 1.4153976091276446
-1.58239800515138 9.88666327216388 1.5089653758690262
-1.6062908020506264 9.88724588762049 1.5400804487007989
0.8947284698558352 8.872612560393515 1.9691345767239963
0.9105912990805854 8.975884826098005 2.0632696621727176
1.019454389992523 9.4849229453362 2.466186622333199
1.7724737776774404 8.9263269735589 0.9751357745214294
2.102461821955334 9.546427607125263 1.0494497826496183
-1.8254404056337625 9.55198356961869 -1.4392495027476107
-1.928932608278255 9.712176074499157 -1.4801558049483652
-2.056765053004917 9.920040956811741 -1.614570901007486
-0.7382907246988826 8.942576356089685 -2.2713996794465787
-0.4905980473002513 9.633805873002627 -2.729326613788859
-0.4775846520059574 9.548117398109833 -2.6682456223741524
-0.5106241249045941 9.888591046489942 -3.146628133810023
-0.48530597147427396 9.948917793176207 -3.258199174493893
0.7756896819926407 9.55686994881639 -0.4649583125210287
0.7954896121258063 9.797310732014264 -0.49493829699328207
0.7858142405566123 9.887810821776746 -0.5188280905756463
-1.0590119859382499 9.229959232973568 0.3647524246900651
2.537658393462378 9.445148107641684 5.235068888492867E-4
-0.9406971592378314 9.750878775704894 1.0781728675560027
-0.98654523497452 9.97094650191032 1.140765291594567
0.6431398880124327 8.980399836861315 1.6427898349530372
0.660368317174628 9.48245179158616 1.7852230802483715
