ply
format ascii 1.0
comment VCGLIB generated
element vertex 841
property float x
property float y
property float z
element face 0
property list uchar int vertex_indices
end_header
0.7843761594032598 7.69985584799429 1.448043294633107
0.7701028575383116 7.446813394804669 1.3582710604039132
0.7783473138148523 7.615433743864197 1.4039569328285895
0.8040614120470032 7.959508282422184 1.4760725304407099
0.7769293347502546 7.911468284425419 1.4405026254951403
0.7896300704551962 7.801446100362534 1.4027739373465486
0.7545581178056342 7.774869744370517 1.3975606417209863
0.7481500544987392 7.741153559173079 1.382698747319196
0.7405236444757033 7.8809332516528645 1.4702360979435884
0.7418160443396224 7.871949680020321 1.4724910119529635
0.7346768950399886 7.963795811699884 1.536308429921838
0.7294484872109496 7.785411552536822 1.4445434423236456
0.7361300736192593 7.741537037484865 1.4188762121910778
0.7222818813807049 7.814052389640801 1.4611012712675737
0.7553655063664794 7.766338481868903 1.47811407037489
0.7467089866411514 7.905722524184341 1.5367895179262527
0.7867923122004287 7.740805892179367 1.4354616962465985
0.7782559781704468 7.799682853248348 1.4691602356541398
0.8072412351025073 7.836358446973379 1.4606827866966
0.7921729958448922 7.786041241533862 1.439230702503155
0.7667775451809499 8.020037146193705 1.487787317559961
0.7716342257106648 8.062381948663257 1.5539646428412555
1.0736861020099524 6.7374486265277 0.9490248237516716
1.091536928341076 6.687434587139804 0.9314713570890822
1.0696966281455975 6.807983963568131 1.0078696224081394
1.2056599497861196 6.856391645345935 1.0048099030358204
1.1387762594187083 6.668820719413009 1.008306595522673
1.1175199109306557 6.662110568452871 1.029760659264251
1.1602092630920489 6.690956191570035 1.001070192294549
1.184043738142107 6.762432752530094 1.0024014766713296
1.1693604041050407 6.760362436236119 0.9699591777315101
1.1076356715855602 6.64699911926421 0.9334758955323684
1.1813983825230048 6.982047578846839 0.8905889580353746
1.1395309419992476 7.061061144997961 0.9603462100998693
1.154340336434572 7.033967206370292 0.9683486426947888
1.197685720577875 7.03208563599875 1.0430161487929235
1.1805798140179937 6.9474245304260736 1.0141227032626445
1.2317207276247872 6.9982176582315585 1.011162111319964
1.227814978308857 6.927453422349003 0.9488002225873605
1.2489470209567186 6.965806162343905 0.9458405103773522
1.234238032490486 7.002952701896366 0.991128014962272
1.2448506826504604 7.032664479287013 0.9845304633568672
1.2632898780638042 6.974793232275922 0.9522706597989742
1.199212669874065 6.921406474495961 0.9076251972225025
1.2221890409933849 7.176314177924563 0.9143304366127328
1.261372148985258 7.25195185980099 0.9064219586593135
1.2340920517674214 7.286122611599703 0.9868930855490653
1.2284135864930454 7.301861618396437 0.9664674744644361
1.2203122377345512 7.197574318296338 0.9575874171192982
1.1941090111827797 7.169217828190268 0.9927156843795134
1.2352124818116301 7.246037800120119 0.9883612898545705
1.1865218226083407 7.163977861401806 1.0053668515937009
1.2633572190471714 7.283228623918531 1.0390685579646168
1.2436389015145766 7.164220162997815 1.0357718197216907
1.276725880071224 7.123706591305189 0.9877784208506998
1.3065795368223216 7.239894194608478 0.960722566005967
1.220198739691469 7.103152977815345 0.9380883187874298
1.2581044058762156 7.152036621520453 0.9283979002354501
1.3344786039534475 7.560832098483246 0.9706703012299561
1.2705125641095676 7.441342577485897 0.9488823010939653
1.3016016211796773 7.391064598118158 1.0423472652525554
1.3307575290850322 7.424516087396866 0.9890798705295324
1.3465183835588301 7.433556421363203 0.9696204700301786
1.3406279267685772 7.496966646312386 0.9669458540876771
1.3611016503038558 7.475395052633652 0.9346176408033662
1.393987564254403 7.744001646778472 0.9625030026933732
1.4106418088019599 7.836312841039747 0.9792612666123407
1.426144937486424 7.8353612085339925 1.0267718531987435
1.4142251677394886 7.65733245044523 0.9749807490282357
1.45821703928851 7.8520720176828505 0.9652480461559677
1.4278890796772066 7.772562326265621 0.9917394407910778
1.4204245099850317 7.801918054195539 0.9522033843068612
1.4360116602197188 7.715635378919947 0.9379049769403388
1.3894784301348946 7.7150551788058275 0.9660274899746223
1.479392144208928 8.008466062436252 0.9620177703413891
1.4947241333167733 7.9483292025260015 0.9954702872003371
1.4710203769220578 7.9798980230083165 0.9801539500317421
-1.087882861264565 6.6071090759379985 -1.0147618981970326
-1.0472169819817283 6.683932021608775 -1.028693691737511
-1.0262319854043704 6.600960477304245 -1.1199414493907587
-1.0678011338162718 6.745633265710093 -1.1152408148247142
-1.000448385119222 6.566591097387531 -1.1199140970328296
-1.0742188558453245 6.612196502689909 -1.139542141779627
-1.044390015043075 6.57547097755709 -1.1598909520666896
-1.1070428887683 6.558809813047184 -1.1100452799345004
-1.108485285453169 6.597542889241566 -1.1125664781928264
-1.143275908693604 6.679067021194093 -1.090647051235003
-1.106514612616498 6.639239205759685 -1.098551184012625
-1.1410659897790756 6.667122306582086 -1.1014857537023104
-1.1268870521066867 6.726958905785905 -1.059342865225807
-1.120964664563824 7.064849555115578 -1.0941437490584152
-1.0881953981235069 6.882807573854006 -1.0598226296701112
-1.102272422895316 6.87181625179635 -1.1319042595449378
-1.1467768078682943 6.964346927408405 -1.174769989124711
-1.186985609084363 6.881193646471876 -1.0981688102774747
-1.1498329145900381 6.853089498872077 -1.1364895123187118
-1.181983055746471 7.024045722148135 -1.0733248398399244
-1.205792064014219 7.279685882890666 -1.0863121837825291
-1.1518808062364159 7.088213369240217 -1.0843314565956628
-1.200418826765943 7.2240299943698245 -1.1380655891186198
-1.1410716226303879 7.1348280110340045 -1.136878740098409
-1.1551421867877911 7.23903028327225 -1.1236580255345037
-1.1584804769331971 7.2483143636003575 -1.1333754105070832
-1.1253982896331256 7.112127580565288 -1.1274379539117332
-1.134586781256732 7.137829069749578 -1.1356861011515702
-1.1729210264964955 7.292080095765147 -1.1810832866531165
-1.2282175812974268 7.26501480258307 -1.1939598901715558
-1.2223810736774248 7.230270285294671 -1.2179582559117235
-1.2449166063394483 7.242249893090198 -1.1696413811325164
-1.2287000679124496 7.110330541939166 -1.1433338729775095
-1.2430475141950503 7.294378973648252 -1.1452467053448803
-1.2327923325676966 7.346356419411487 -1.1139675469945673
-1.2229959910385064 7.445611815561667 -1.1901680024931198
-1.2116575965922847 7.473703552037371 -1.1485007139297958
-1.208157744134677 7.472070911089411 -1.149636523538001
-1.245988299571895 7.579535379667834 -1.205993604565736
-1.2453287425550845 7.595593397902233 -1.2064902185209327
-1.243732572839989 7.377221639772705 -1.2132850588807844
-1.2451715244204462 7.463912742266664 -1.1865333697899179
-1.2458472238450917 7.365037847357674 -1.2116021502531436
-1.320637342960216 7.599709494246818 -1.1888885366650883
-1.2920608094721278 7.462109592264475 -1.1684330310326674
-1.2630423992196715 7.3686043357341635 -1.1297041216080395
-1.269999923178313 7.691578268512512 -1.188613995613128
-1.302272754914206 7.952455765366823 -1.2400227326880577
-1.3375438587528876 7.696020963118277 -1.2179667504799898
-1.3403272997899236 7.752415172881432 -1.2092372674343188
-1.3457924507249832 7.765425722092751 -1.1894662385661852
-1.3445030066281896 7.728708272748621 -1.2052263745485234
-1.3677655422776602 7.995089563017849 -1.1707338264380223
-1.355424124821614 7.978382213156941 -1.2148055415533638
-1.3582005817805294 7.98078997876403 -1.1782554215249976
-1.344597635164668 8.002179441614551 -1.206591337446523
-1.3732716793275848 8.059095052396563 -1.2187296478334655
-1.3130902516646337 8.028538181711932 -1.2418249346139882
-1.3501687497935737 8.048257355356094 -1.270488884256948
-1.338580687790682 8.024260814439051 -1.273205580332333
-1.356186184223147 7.982298544114978 -1.226716915236985
-1.344651867053787 7.95772563766418 -1.2659367725741104
-1.3467880236658547 7.9343941537167515 -1.25564519955039
-1.3790347055171386 7.960426716538575 -1.2344649350600738
-1.3841060120771604 8.011575534152154 -1.2652875357771771
-1.3961640483762958 8.019264339834193 -1.2020124933545457
-0.5814855213711004 6.845626774295848 -1.2691102171672373
-0.612618454376232 6.860536246578501 -1.2451580049723958
-0.5543668956025216 6.70582765849849 -1.1956889737658625
-0.5727284909170575 6.770227658053989 -1.213810685005572
-0.5544932817651531 6.769952959484685 -1.2474841212173386
-0.5390168613486641 6.703380702233358 -1.2391878124081404
-0.5387379876681451 6.7541394094474265 -1.2433864254933338
-0.5300227908942794 6.695507914638944 -1.29326064620143
-0.5087355779178586 6.7276248730305195 -1.3030921271473797
-0.5311349134496209 6.7995797140721015 -1.3089752126139236
-0.58979608012888 6.700590475885449 -1.305259806732772
-0.5532413923020191 6.722414385348975 -1.3252083139091249
-0.6064772469590018 6.691088991681457 -1.2980408536789139
-0.6147807946989982 6.680448680556999 -1.2774729541010046
-0.5891872539956031 6.891994432175989 -1.2852249183260527
-0.5519875716726346 6.938358917968172 -1.3325274005605965
-0.5831368404329474 7.133103254319927 -1.4282908896601623
-0.5734779278701915 6.930254888443368 -1.3069809297783483
-0.5794226480733229 7.006184288110731 -1.3584911360955718
-0.552004810559431 6.941737873279436 -1.338990484923161
-0.5727979707422374 7.031262488553527 -1.3603612676553083
-0.5274531908559321 6.93946276557704 -1.3423135468717058
-0.5716513244406836 7.119528783715804 -1.4234049925405663
-0.5412214667636486 7.0903962145826736 -1.4666127536051732
-0.5429548752418474 7.048471984632916 -1.4537501146979084
-0.53221038159629 7.015950220509402 -1.4208388897934392
-0.639547582076147 6.903192343467592 -1.3532219800098135
-0.6305474847003087 6.948786996779401 -1.3727938629584198
-0.6462407753983518 6.897623897918673 -1.3545800155242431
-0.6396115585740203 7.144769300153859 -1.4740338614461623
-0.6308559586004184 7.261991543607509 -1.459368593595392
-0.612909424640514 7.191740136900363 -1.430512650960825
-0.5870857883477286 7.169883368879383 -1.426764388461347
-0.5685134959578231 7.208840907216252 -1.4647990122166712
-0.5741554162772089 7.27750843601863 -1.5109616109175827
-0.5719920398770579 7.127449410020266 -1.4609397940792763
-0.5678829293931859 7.151189457222762 -1.4667009066561785
-0.5818006197562691 7.144864864451339 -1.4893841997743074
-0.6557792502873798 7.167471588121443 -1.4693971793495575
-0.6695785580958619 7.211079442518138 -1.467774881301581
-0.6459665239516351 7.181852288270018 -1.5042069880460514
-0.6660429473884462 7.490944883843213 -1.6042219631050492
-0.6609305850924462 7.468601550746498 -1.5446319139706408
-0.5996878909196938 7.430170076795486 -1.5560215209252533
-0.6250234322140584 7.550027310997641 -1.6043346287460056
-0.6260394620804239 7.532163958863155 -1.5468614825229052
-0.5997861727666245 7.535853989341401 -1.586028685341228
-0.5850372699625959 7.395967008680126 -1.5477573584928412
-0.5970814700513865 7.535508317122722 -1.6152659448243667
-0.5896199635071885 7.416421616575915 -1.5238538718157275
-0.6316617027425028 7.4789500240388715 -1.6077225041347343
-0.6164481277466376 7.465353760336989 -1.617111398585045
-0.616904637784442 7.433162826134333 -1.5792057873556336
-0.6649464626754282 7.569566167168527 -1.6663352014335362
-0.6504764178867697 7.484900220041997 -1.6171656497398714
-0.6711325300661773 7.4339658809476 -1.5677749602619893
-0.6977308180344838 7.763423703259613 -1.6745768981851283
-0.6576137921150023 7.775629761239946 -1.7070894900752225
-0.6345310833710673 7.797347975126174 -1.6967315602311273
-0.6264706390812861 7.735972136347766 -1.6991218022507824
-0.6233032546961468 7.7334836164234435 -1.6917375909099044
-0.6172011638730983 7.773642873505721 -1.7143101536558627
-0.6564337314416832 7.886536430392175 -1.780055204431987
-0.6116124642646866 7.74523814882612 -1.7532665051397784
-0.6748281512075293 7.804648009050981 -1.7501550161971169
-0.6466708518648159 7.694446670554812 -1.7302490027757949
0.5831450429859623 6.963466020747301 -0.0965893847359566
0.5535615187501703 6.985332066229393 -0.09979340065730131
0.6558622691986933 7.113227401534499 -0.07170281899212065
0.6407097949314527 7.01233672991423 -0.0693637308025644
0.6443431634975967 6.927541906559048 -0.019133583570298852
0.6538047674655231 7.005815113975407 -0.054474510885945814
0.696887187435806 7.056637069112474 -0.09677188669816382
0.6829013719218555 7.013550641908791 -0.12512153047011948
0.6677333585902284 6.977928676693171 -0.11656243097341801
0.6637885902609549 7.0876417839604136 -0.10094982183820433
0.658738932355958 6.944298935766454 -0.13007315881363546
0.5735029588889204 7.052590594169865 -0.1341894189492538
0.6117043396067944 7.312007820794495 -0.08893886803399799
0.6694725670909022 7.374382276388078 -0.11390808350320854
0.6772492207702588 7.32131235042515 -0.12471889050958403
0.6688513363906561 7.297744917495693 -0.1026286669729954
0.6734865656279356 7.220282145076287 -0.12513612168721638
0.657951497490868 7.360079417233744 -0.17760930514057005
0.6569286416283732 7.203438885114499 -0.18027983933758693
0.6142554393621105 7.205049895634256 -0.198515847262556
0.615612918666964 7.251500571647317 -0.18211821411127202
0.6328011857374283 7.317171055991299 -0.2076721513028233
0.5886801425594682 7.280667601161945 -0.17123403135826026
0.6030519818059986 7.530535714451058 -0.17683321511772263
0.6240772366732364 7.569072016338935 -0.14613096442693302
0.6457353429119875 7.625869404522911 -0.1916302304500593
0.6881445288019145 7.576557595978892 -0.16375208779436284
0.6461038960428847 7.560276336457684 -0.2545292996632592
0.6348299701455522 7.532130141548247 -0.21344209626682784
0.630603408382137 7.537213803634773 -0.21254646239835684
0.6449839744648564 7.5120425038422205 -0.21664505430893682
0.5909938755896451 7.468870706439834 -0.18251108581828604
0.6093305797477709 7.504308379098241 -0.189968327815074
0.6090855290198836 7.508700149562095 -0.20734482494873027
0.6048189814050041 7.50518874396748 -0.21396839422169397
0.6021274196867894 7.795267006805328 -0.19877966315464693
0.6211353922393095 7.7579140554963555 -0.14756789990871932
0.6577203062250563 7.948700669171095 -0.17219205282047148
0.6678288895290349 7.856269838362522 -0.17151515620969746
0.6947191707906605 7.8834718096683245 -0.2276296606135582
0.6967187587540304 7.852611023351481 -0.23636817754176512
0.6900749691114586 7.791933524744884 -0.2037377696145276
0.6473947711734294 7.8923406593391805 -0.27988030821397913
0.6450973493454375 7.8405672231110435 -0.2528364829413634
0.6520695871674521 7.96145928582931 -0.29001652215986556
0.6173148434857664 7.8262346106098395 -0.22592348740375176
0.6301076084047155 7.998240208219636 -0.2827826007514721
0.6896257952124536 8.103445960391051 -0.2145458751665848
0.6844014694129262 8.07649638829101 -0.20312346256049363
0.6441625707867167 8.088114273935258 -0.24725108304031776
-0.9229546367405668 6.83360741474291 0.45512698777924165
-0.8572926032840822 6.890064666930539 0.41786355509213247
-0.8344672340484498 6.888260815627271 0.3722347592455448
-0.8521243790926597 7.042991217758461 0.33827693590430663
-0.939892109724875 6.830300539095009 0.3407008347532572
-0.9662731386522212 6.832796395426322 0.3502191731823644
-0.992802854687668 7.013817278921536 0.4241040432509934
-0.9590022145369835 6.821124292763415 0.4547159384357376
-0.8803549982774109 7.061611665470419 0.44337792099241774
-0.8432749087646895 7.088931625096626 0.3746303045428687
-0.8903446464288987 7.176745548288233 0.33548132540006814
-0.8910418004087541 7.170490404122298 0.3421370581695026
-0.8952544208813207 7.1182879938505454 0.35473817673537017
-0.9282437087029732 7.154367516621764 0.33033669365552476
-0.9338618968787236 7.243421077396359 0.36004534570860836
-0.97209625466564 7.1419747697759455 0.37061216193192337
-1.0039526088540576 7.102708350934184 0.4063675846048895
-0.9733491165734027 7.113841650250401 0.41048544764149025
-0.9505841677603297 7.102261800362302 0.3932812234588125
-0.9708271388123547 7.142219386872721 0.437975736462532
-0.9437165642547318 7.18826969614679 0.430583607087232
-0.9554038316758316 7.086716183885912 0.4451677624874217
-0.932445836664501 7.453650120615412 0.4465008233431217
-0.9190530653220942 7.404610876706159 0.4017346075118582
-0.9093351309108074 7.448446798699005 0.4252945294321319
-0.9156821216857562 7.510842252692913 0.4147457479182133
-0.9124516127871751 7.447879224935216 0.4173409826058237
-0.8849553194861236 7.337995790853276 0.35053800653512307
-0.885471088728572 7.451876173421289 0.37334849555658295
-0.9089646142786519 7.446478139879767 0.3327669693097167
-0.9506283050270935 7.429558808880557 0.3431873233839482
-0.9524375156083251 7.4537087507446484 0.33214871069020835
-0.946487411311482 7.386276374209833 0.35136583374777475
-0.9400993604770497 7.589493312307299 0.33574731189898216
-0.9372217157682996 7.398998585673108 0.3319641230202429
-0.9409889572891057 7.359332371220961 0.30554346218260364
-0.9932288635119247 7.563354952505664 0.36743744728382727
-0.9810843296265361 7.3867935952307695 0.35170986039016044
-0.9886532961170892 7.440408606822666 0.4255574309733512
-0.9706362735185546 7.5328155923644475 0.450137499461457
-0.9169817716576857 7.683174608400558 0.38663392344675573
-0.9220493437517618 7.6987095782147446 0.40551135958112783
-0.9410358981784271 7.859233900313508 0.4175282031250788
-0.9435763914763079 7.8106798575439536 0.39790475515638013
-0.916858656415582 7.652525037045122 0.3871785745054942
-0.9162128307396442 7.696974821348224 0.4032121198575036
-0.9356628669805377 7.781788486718931 0.3263433553173723
-0.9770306170398382 7.676376819321021 0.3339605281796766
-0.9977754211113437 7.721902052013177 0.3495912927815289
-0.998679752367278 7.850086329197037 0.3794125099733163
-0.9939982578519573 7.692573842333521 0.38794504831383175
-0.9207881594511627 8.072658042668138 0.35921487267882857
-0.9204813690986482 8.079167540700569 0.35190701449878636
-0.9314640512899077 8.043274287492991 0.3580861092044411
-0.9923695618049626 8.094279925198453 0.3339206127690433
-1.003668167104735 7.981422132075033 0.3516081576293861
-0.9737716614602507 7.947935719205586 0.36789816598291364
-1.0176847003158789 8.057562122152817 0.382220656506462
-1.0070389449490813 8.035713198179165 0.3656358625420399
1.7257327909231528 7.719297875281724 -0.37257417499510154
1.7540515827001502 7.757408416069782 -0.362014771434767
1.706755034141456 7.756243025336523 -0.35366570934695485
1.696519195162795 7.711243631514902 -0.3266594131524891
1.7486725677549726 7.777290292840885 -0.3087500566514681
1.74507851790174 7.7933183090434355 -0.28997782899821467
1.8431582267368884 7.840620758616249 -0.31716342636744715
1.7903872222881076 7.744969237316831 -0.31786994175688954
1.744374465454235 7.720294274422923 -0.31718117231821524
1.7488951720409518 7.70312541182905 -0.307041969654936
1.7808731201273786 7.779506024074115 -0.3334259418450608
1.7960752558633741 7.821778233473842 -0.33912647486437036
1.8191660354372239 7.861763828393667 -0.3529605308972304
-0.9615860890277463 8.070174866382787 0.6746533567058277
-0.9470765593327243 7.971171283173636 0.6438876237462596
-0.9816825429855799 8.000630372493058 0.641007741145535
-0.9954003718235791 7.917762253687866 0.6497995424088505
-1.024585091078146 7.955943745500507 0.6638012162799592
-1.0101963622828016 7.931308922687305 0.6480927441518531
-1.0274617296708404 8.077561310023572 0.7109965120582133
-0.9830178394132322 8.012885833814979 0.7371873681260921
-0.985830638968507 7.951936661253117 0.7212592975856478
-0.9698679883628064 7.972323728969641 0.7144523842495958
-0.9315199188435737 7.986625003352427 0.676222000371842
0.8059033020172409 7.8012593968444035 1.42095498005289
0.7951847221718993 7.759680980353011 1.4015998344684122
0.7584949363959751 7.886732240830654 1.4251513141265197
0.7330918958711269 7.739705977546757 1.4027212634285449
0.7565103413636524 7.885689807162782 1.4499257767523033
0.747961163615901 7.8501764227839494 1.4686735594265679
0.7457467725254823 7.890208226245378 1.4984530453825595
0.7564227414671753 7.8245216131240145 1.4573587537091175
0.7799659847672985 7.783885389036589 1.4426558706374464
0.7575369496602583 8.011594604912798 1.4848728232705983
0.7590050607392383 8.003315744118812 1.491651928062975
0.7338114124913816 8.07795203673511 1.4528004750564678
0.7135121361375646 8.052018890510293 1.454578460243659
0.7011572973020429 8.035978119581113 1.5233623626340196
0.5976593664878609 3.6642124587435134 0.46034909122455037
0.6267693351496346 3.704847149100318 0.5525238350559549
0.6412224745880772 3.674196181115453 0.5999275737149357
0.647563183004303 3.693586340975821 0.5550675806005319
0.6677367896281273 3.638916176368882 0.5722961436321881
0.6999694435253502 3.650665668416545 0.517377889173091
0.6842034193242786 3.6410674288883023 0.5094223648078755
0.8203050720878552 3.696030052131038 0.7310597708621384
0.8929456831636366 3.692717947030341 0.7738974623808953
0.9352780322292905 3.6825235831327423 0.747663976468494
0.9658065542877775 3.712204681519439 0.8894516134656608
1.0216115245143724 3.646325200860929 0.938113175850144
1.1597059284022937 3.679866830197977 1.1054544651927345
1.1250870661672228 3.656238887125855 0.9562378066487529
1.23746559662151 3.647984012779321 1.1348775506460236
1.1321914505682829 3.6590117573371286 1.112864458961425
-0.30897015391462285 3.9101306811939978 -0.6935864614475654
-0.3982729130777068 3.90617368061972 -0.7291157430084992
-0.3223824086311611 4.1055051150176824 -1.4015906058774596
-0.2975159760668611 4.051951777880211 -1.4261506761316958
-0.3408724627276255 4.082716471760341 -1.3847450793343543
-0.2171275725822326 4.099982966213341 -2.1172013755050108
-0.19229792463755155 4.05176831884687 -2.1010966142767233
-0.2384137261910242 4.040809542139736 -2.0577700376002617
-0.1979760034315672 4.087812749930884 -2.178639612184605
-0.06648479140753505 3.8804720666448738 -2.761145924613062
-0.041745329612578874 3.8657491701846025 -2.7345267799983435
-0.003626104359375282 3.8361268886903694 -2.943699263903663
-0.044815273271088314 3.8571993037564 -2.858178370547864
-0.015459814952590807 3.7900484002574197 -3.0175335312824445
-0.0077786258542631905 3.7861373442002297 -3.0651006699136567
-0.004298393028287803 3.750322375918101 -3.0838655896780547
0.028447796150671223 3.711240245628003 -3.09682345301877
0.00402758067596028 3.7215663733584083 -3.137369452754343
0.006869728975476081 3.670036531628983 -3.2643618883450984
0.011302956900102402 3.6767556572415034 -3.2469402844430864
0.010436631159308332 3.6788305906957075 -3.229079524060545
0.010219099734459098 3.6862191487714244 -3.2089993615575296
-0.03242622683471792 3.6990420741494936 -3.252535894948587
0.3177313199235434 5.172803345770618 3.2482237488246812
0.32402365648472575 5.168343308873246 3.215841142956682
0.27063369613011307 5.175706911405579 3.302540561204657
0.3086969843073871 5.16023189590814 3.314484809490368
0.2642195265119192 5.176216826046061 3.292474124470531
0.14528839351129794 4.939882879481059 3.835440495540728
0.12601379865683254 4.7962652968449575 4.065193798815034
0.12419778365947486 4.8430520590053385 3.9833811088950637
0.09791438149498377 4.870359151522067 3.9431683625031497
0.12433266732857291 4.788510246481143 4.048169425807161
0.1505522390071935 4.862267584496032 3.9436822167324563
0.06094778946673047 6.1641043075708035 -1.643621778796488
0.3335298838473589 6.441095657630136 -2.119877428337155
0.3751298823301793 6.456538866935666 -2.204668103484893
0.41861560820648347 6.528425311102515 -2.293210737393746
0.3728285677681513 6.517276949046218 -2.2223983220444654
0.4176544942636571 6.499643126420407 -2.295990223674543
0.43176825405443536 6.466141059853773 -2.2265919863504315
0.39399867983696196 6.463001847364603 -2.243294624649643
0.7388113702314615 6.609918854092109 -2.765555737075331
0.6823015645225182 6.550944590409272 -2.6946244752313238
0.6887271433254136 6.553606543695223 -2.7427330512112573
0.763472801595653 6.618413071773221 -2.860080632848271
0.8513995938844388 6.633258831221399 -2.905228692236421
0.8060630725438698 6.617902940553999 -2.8171639327196485
0.8222711158810487 6.597214284510435 -2.8256573417868527
0.8651076790998052 6.6066450168206785 -2.898087439691785
1.2157977949562144 6.669993766632221 -3.385379104142726
1.2265699423406764 6.672411156659051 -3.394732218537561
1.2301754190396728 6.642717217767033 -3.3986596295510934
1.1476578841733194 6.670374141275766 -3.2982637221830924
1.297342463120071 6.673483892414356 -3.5530137921205496
1.2727453851186272 6.673614515119795 -3.538147341869955
-1.4204529846109955 6.518330756536904 0.8869678663583764
-1.4867589890004775 6.538506370907194 1.040111225858812
-1.5180285045620008 6.532236932212296 1.009660171137173
-1.4981417532911694 6.475026072298986 0.9925413183616681
-1.7857747894161842 6.5545698171908295 1.4460626402052885
-1.8523475857651306 6.549772494439332 1.5317876304513645
-1.8701286201987397 6.551043489459159 1.6268306011742044
-1.8768002931571817 6.483276209145246 1.6164262124487103
-1.875199363640245 6.469097717907921 1.6268313398100198
-1.8695510062327416 6.456685521987552 1.638744766223572
-1.86780036435448 6.455411524319013 1.6499959551807821
-2.1385638634799435 6.403272252587101 2.07872425704115
-2.1952159282785986 6.434214134911604 2.063917754449283
-2.243505043467149 6.403471465010643 2.1357702499951263
-2.206616194225811 6.408103131850322 2.0610645699660406
-2.160613092292124 6.408051120165321 2.013238581867829
-2.646644885365492 6.188980903195898 2.669213713930067
-2.637873384387263 6.20457811451957 2.6481712509749413
-2.6599952732329237 6.176333340266684 2.698082863193622
-2.680932885626206 6.134740299037904 2.740743498059823
-2.668611210299909 6.150024499466378 2.7091264121049217
-2.825532575675721 6.068600952509255 2.9253763152116123
-2.741812121663198 6.096591801207507 2.8377124427676916
-2.792693324540039 6.074064289531504 2.876373993684553
-2.7920747982688625 6.086373245169773 2.8639087631058953
-2.8154826674218523 6.070305872884227 2.8833621554647375
0.9920721874750072 6.2964036716066705 0.8350475843491614
0.9735236968301398 6.2897991665078665 0.8632820344428307
0.9602692058789959 6.221362551218849 0.8744336896751959
0.9562645510731205 6.1712178163243765 0.9169231433109796
0.9466214085691004 6.156557331061915 0.9171442944054308
0.9221067990478719 6.125927880801674 0.9216689326566255
1.1309578823270352 6.285049892717561 0.8687433336182986
1.17944724343445 6.351862070539421 0.778930707440157
1.6566429099698385 6.650284264819076 0.6333410394305543
1.6953149659149453 6.651593614881807 0.6077834999506557
1.6267889099105282 6.622261998307049 0.6817563414814971
1.811484833282959 6.7004701101449475 0.5183867848708884
1.8866631576259998 6.693765105049116 0.6139200625650324
1.8031943980740184 6.664666476380488 0.6197408201121831
2.2067267927899628 6.881489420243481 0.3067178552781872
2.2236475998784626 6.906461623852342 0.2870054693438855
2.2173821467934625 6.912519516598679 0.3016836610779546
2.3341334043733744 6.895485728144162 0.24153000906411287
2.408924303817035 6.911193762806871 0.18469979400238157
2.4773737643349043 6.979174932937235 0.13770056883922727
2.481483942518639 7.011619539081515 0.1332814726198901
2.744740538991325 7.024332497289709 -0.02687337313306902
2.7455849487959587 7.060022120369293 -0.06739258861462008
2.76753341375771 7.0821228127479054 -0.07379491471424338
2.7489825524367664 7.031637928827218 -0.056941276942098294
2.9054390122020735 7.117088286551266 -0.16481202382503451
3.0061560673122414 7.149501516561438 -0.19067052453754113
2.9301598625007115 7.130415287349373 -0.16117186640939177
3.0472725835060173 7.144970336463901 -0.19932276590996048
3.0621540303050314 7.181627320344994 -0.22460367760689648
3.048306861476178 7.165293987983577 -0.20286903276582724
3.3933850025274355 7.266751805348277 -0.3640826899635736
3.4733472603766424 7.270215974915791 -0.38091611645634954
3.50432728850657 7.303813142931086 -0.4096508302368298
3.544192404112718 7.26550426857 -0.39709430148568237
3.5279306250921816 7.3006658343037545 -0.4025983482078769
3.546526575437877 7.2904341489160185 -0.42039750816929194
3.6678443358103094 7.328457566976496 -0.48265284863905833
3.7381726053672044 7.334952510633802 -0.4824793467542469
-0.6320518542630699 6.40088924141262 -1.2296808214333064
-0.6256027169703623 6.399974219232916 -1.193192636784754
-0.6217391432898249 6.403491774682504 -1.150745831559251
-0.6328269395171571 6.602964206287776 -1.3217512549788542
-0.6198613478658233 6.565205390594288 -1.340906016474132
-0.6926588636464139 6.537842633084567 -1.4162976493805752
-0.6512841301773873 6.476785937565212 -1.336167923530674
-0.6736492579084392 6.514277650687619 -1.3490738958232675
-0.721715558492147 6.485676987029343 -1.2931200869231876
-0.6622518708385678 6.5216605409754 -1.2824500034772246
-0.7413219047067992 6.644125330952839 -1.5180033143834317
-0.871533358226254 6.82400632107645 -1.5206749693050126
-0.8216453074413403 6.700533732787817 -1.5372208350876453
-0.8019286523790076 6.738996461238972 -1.4754940203761329
-0.9351476992725468 6.87358059010645 -1.5985566815974432
-0.9284851778913137 6.838263877839018 -1.5512513648668873
-0.915721070654897 6.896656590107563 -1.599806105852012
-0.9155463386656704 6.884281408770696 -1.6098861182830149
-0.9963172911975828 6.987959156637552 -1.6384917340770784
-1.00297414865381 6.897109287133371 -1.6604595982068358
-1.12973608405594 7.062010486239625 -1.7940616157669245
-1.2441488798980205 7.168931938748015 -1.7942454717283827
-1.3656660326507923 7.251290077374032 -1.8557677328529827
-1.33792868400998 7.276424068455041 -1.8715837827376334
-1.3917456392717282 7.292878465495442 -1.8852305898050756
-1.5158523396938282 7.34699508459614 -1.9400838251471297
-1.5210954415550504 7.352902654946934 -1.9054718357220184
-1.4719815788470747 7.3151989008080465 -1.8632081957695261
-1.4642322627770814 7.301483271513369 -1.899989883540762
-1.461040318675899 7.29140999996367 -1.8862845611443384
-1.4467044933994178 7.327030095900822 -1.9328929843962737
-1.7542688027435678 7.4517805426256105 -2.0926104768319043
-1.7145185875285456 7.422310968294807 -2.015526588255209
-1.6816544314479092 7.41067198492227 -2.0582154653332805
-1.7388831968119034 7.421985021351184 -2.091289088060397
-1.7718509019370852 7.438310624329539 -2.109211714974987
-1.84674248192932 7.465946191869724 -2.147291624424907
-1.867273432643086 7.476225609806652 -2.2043608407948927
-1.8687382547182445 7.510599152670063 -2.230516128586885
-1.8698679112587202 7.47160012024559 -2.1694179628331276
-1.8336632886121624 7.448308858135061 -2.1447268698535695
-1.9796012290837148 7.538843164842079 -2.3693415150241517
-1.91818471400468 7.507584317892746 -2.343864842724894
-2.00151368898032 7.551351765068216 -2.4821795410774756
-1.963340474377369 7.518840207045731 -2.4817135543148376
-2.0254610770595862 7.55659467056405 -2.450995944075635
-2.019004571944183 7.545415275747173 -2.552390312310988
-2.0313716565710322 7.560807931873805 -2.566975791857142
-2.1020862608561925 7.570638979512589 -2.6887283018941295
-2.164841562013991 7.580574798121358 -2.848837141076406
-2.127942575413667 7.566818123533119 -2.7762791440420207
-2.261125400726661 7.59461449621003 -2.957331736230781
-2.187789449868822 7.583113453783479 -2.8842543199232407
-2.2521308536692204 7.555289252023137 -3.0074844358915467
-2.363997086858377 7.578920128476124 -3.1110883616910474
-2.390448704538056 7.570145868156372 -3.1788060971105425
-2.395575801884645 7.567077529084927 -3.221212369175355
0.75485565989057 6.8656507242389235 1.153008649546694
0.7089497581291848 6.860267024589175 1.1086211263774068
0.6970079284821804 6.8045803274621 1.0934515450465288
0.7059423689797957 6.781077437312291 1.108383492668046
0.7274563599209174 6.8189180610028055 1.1912545606199754
0.6405698830776595 6.915535857602493 1.2680229198845598
0.5317031676239841 7.052197020401659 1.270035576202038
0.5235025986172069 7.188713421947349 1.3874187886713543
0.4503038275126713 7.135181532458085 1.3840518913667639
0.3551010116336607 7.308677953780203 1.420202062282184
0.4502215856533189 7.218307897486535 1.4876378942765598
0.2912168258456789 7.404081957137541 1.596327987614332
0.22708565436220313 7.450894071696195 1.6373513138496982
0.20064647870773725 7.444119368510849 1.628327483376607
0.18249395553049721 7.524145357611229 1.7182768640670487
0.1120261118671337 7.481858411065731 1.7236751226484273
0.05419311199838881 7.623268176686002 1.849742488769175
0.007325791932721865 7.561725027478179 1.8939380444995446
0.006869011736130342 7.603257527312721 1.9044154335485115
-0.059630764275399074 7.676733025729767 2.038501963150743
-0.023246334128286236 7.617714058863532 1.9370379799172608
-0.027767006956163312 7.636916237430892 2.013179939215896
-0.1358863840373612 7.69390327641093 2.1917925665985267
-0.23283392940697664 7.780916497895062 2.284223521488167
-0.1699319250624752 7.744957585007216 2.2174452048270985
-0.1699148410540902 7.752908165900326 2.158596016055833
-0.14283712006864466 7.712653223744896 2.1754122446033053
-0.2276671438597784 7.777934418494378 2.324887706429452
-0.28944409706775065 7.825327470640452 2.389886099058875
-0.35707483724615724 7.861459460516284 2.413375624911238
-0.324465091072534 7.838509293095122 2.4263156892753486
-0.382279001508235 7.872282093895196 2.4133727250003516
-0.3747456582071387 7.863484922383414 2.464175617589131
-0.560827238027067 7.979992189386583 2.609670907630587
-0.5248038600341615 7.950978350342049 2.533411146537938
-0.47982265520802764 7.912520757755849 2.4557087288872803
-0.6458551988504851 8.043785271113952 2.660910983606273
-0.6198644927599717 8.014564782780797 2.6495073357878742
-0.6243235759492313 7.997005500389684 2.6391644063685127
-0.6075072319421767 8.010545882288222 2.635029959280541
-0.6683408930005453 8.057544061132482 2.69555577178345
0.6912701323666054 7.258068100783046 -0.17781734093160245
0.6398991022198355 7.306540755084449 -0.22589716486028424
0.6086819635153506 7.349485455369102 -0.26058187421226103
0.6506962574755729 7.505041207409895 -0.2842561912277023
0.6533578634572449 7.444613809336766 -0.22648378440223
0.666824571669216 7.42777410309427 -0.2089208172593063
0.6918024490078003 7.420924501871304 -0.25064856018945336
0.632705217847941 7.396625629319572 -0.24895068332457782
0.6162560180953246 7.503713625016207 -0.3333217450550427
0.6115291379551047 7.51990549580786 -0.3268629647781387
0.6340068978533524 7.5340718844163455 -0.3283613405586659
0.6980462867940326 7.526820245499417 -0.3784478486960859
0.6914637197506686 7.539850795865993 -0.339546440493823
0.6220242022610413 7.5786089457543335 -0.3735899951194385
0.6537228084134915 7.717604820006535 -0.41647500177733865
0.6362959261153702 7.671147152309176 -0.4010169762388976
0.7055049863730593 7.647512437811914 -0.5210301971826152
0.6419093220015906 7.597461541693194 -0.45441700716513556
0.6585346790265455 7.8009066759774575 -0.5129284603535341
0.7150645403634281 7.778378154290921 -0.5380421427996155
0.7398292890084923 8.007964543931621 -0.6981534604378647
0.726666507696604 7.8980887662030375 -0.6300449470812228
0.7319249999621574 7.863781032319767 -0.6797232422947651
0.7493242505847061 8.045952848564237 -0.7390552834157013
0.7486685156923503 7.9944642025356165 -0.7893187464667902
0.68671445548255 7.963415620128001 -0.7475804745336067
-1.342544863685292 7.388456021743025 0.43193293181213765
-1.449976192736573 7.549473522758077 0.3095589062981128
-1.3349616208354482 7.398111017148782 0.33968816715882194
-1.4511069987766991 7.583711739341949 0.29855495875226423
-1.427189531644843 7.542835283790185 0.35960686865394537
-1.4577824110008382 7.514533036102803 0.3145565809715746
-1.449165186081918 7.528721082309326 0.2980822509864553
-1.45318298078237 7.497391277940946 0.3175950065136163
-1.515088452180971 7.532423731235217 0.2803219123128877
-1.511412198902453 7.662048878815171 0.3561726128108835
-1.4745519757920074 7.624138734505917 0.3071192792760669
-1.494596384838233 7.606965243323279 0.2437637799571155
-1.5495382643670006 7.767900255142638 0.24776170215356685
-1.6653546999203377 7.8782941138709655 0.16294530075313277
-1.6939722018597163 7.967391880455425 0.09445718883671776
-1.6638364497525269 7.849367505732274 0.1731391530331686
-1.7678500346984871 8.032318796061613 0.16722509421090914
-1.7289273820835476 8.006588665410215 0.13776667787281005
-1.7651072451219345 8.047674296886111 0.12031602877690371
-1.7152560608102627 7.957857500859365 0.09963239667304444
-1.7848822239036344 8.023526961582457 0.07618572867519707
-1.7647615109250194 7.978580328117234 0.11886573468326536
-1.843830074546916 8.101161708296798 0.021840672273355788
1.4079352066544915 7.48318729996948 1.2617206941706332
1.3726019902992312 7.45435775745078 1.3180927270764542
1.4929936382370679 7.52993285973006 1.3178046011727371
1.496792393665656 7.532946652899304 1.3799749011579068
1.466733207623562 7.5593641834542815 1.3342100623141127
1.4432189193661351 7.511299604919299 1.3502409138222677
1.4662356076998846 7.506965366519873 1.343272269395813
1.5293940093941216 7.646576314005588 1.4192661608815178
1.520779101206608 7.656294684929753 1.433885146580821
1.4478784339217172 7.6584319978575275 1.4538351796070579
1.4880433744924542 7.638245782072406 1.4635106421161985
1.520262631976933 7.643275063488333 1.4772516616459803
1.5296287654255027 7.641370856543309 1.4563372875077054
1.5551917071577492 7.71922676978423 1.5304353079271225
1.5055816796485204 7.744081747284602 1.5489003801645116
1.5246238580642197 7.699698083664558 1.5666313837064516
1.565930275740677 7.726142615627867 1.6203778595497191
1.5674199770425612 7.720777544302458 1.5354312415592384
1.6141439389282488 7.838223517068025 1.6689138811133424
1.696488632637159 7.908773648322702 1.7963390941493917
1.6712586241427683 7.897654937360649 1.7304954308219966
1.6232045911075255 7.9133668522503315 1.7416135841035723
1.6431325017045777 7.8292520488115676 1.7516504024475128
1.7061299581513107 7.846073883987577 1.8018764416958977
1.7877542884455018 7.909188361559286 1.8407520565422044
1.781580922751476 7.9176821319170765 1.809094365024788
1.827668722170363 7.9212742239512535 1.905505184112366
1.7565633531327878 7.9240763949064945 1.8646514837487267
1.722921266100933 7.894807709806628 1.8715015306707026
1.7233555998162908 7.896553979179608 1.8640288720659648
1.6741985982522356 7.910651850275069 1.8468953125422203
1.7231375205314372 7.911536004796562 1.9031796812778794
1.7709628182326558 7.861943415594189 1.8297956675874403
1.8568490465526883 7.908287261909892 1.9760610095097906
1.9346283818643226 7.930004403397758 2.0641494060256775
1.9651047404730961 7.932608939575644 2.069677419637078
1.9506005332912975 7.94335945492668 2.0040518181112934
2.017768252346449 7.943276543546211 2.123274605595197
2.042074362957606 7.942164034233502 2.1483947714703193
2.15267344471415 7.960964945413967 2.2466936191442453
2.274651810681457 7.916206380737224 2.397539945595936
2.201606965399403 7.937417470010474 2.3620741917751547
2.2812074455668108 7.91020125496877 2.4310642280675423
2.3430808493261477 7.904831431152138 2.3961822163689495
2.645251390120458 7.931961918984398 2.6412293500320287
2.648305596220571 7.943670326855111 2.6096291363300543
2.6656656038068585 7.937712307498416 2.615645753481742
2.769592446281389 7.930255483633792 2.7036711155681794
2.773364424250289 7.935848612284343 2.678776737206987
3.1543412952287024 7.896991663663238 2.9344261504426736
3.1244328547847338 7.879729770854461 2.9491963415788374
-0.6706502019081325 7.777486459645842 -1.6708154294232926
-0.6398367959011173 7.7840425579644155 -1.7447600865112574
-0.6170665647571771 7.858504245315747 -1.8100674500940834
-0.6342527926743107 7.826185451163928 -1.8057209175427509
-0.6720302679742158 7.727370736349787 -1.7270706270751388
-0.6233971502731409 7.87851102949077 -1.7469349212351704
-0.587104905700023 7.846951597153011 -1.8357567436772784
-0.5862475576288809 8.017427549506031 -1.8521828212242581
-0.526080299049003 8.011777159877422 -1.9010889020835502
-0.5810105025758141 7.9774722169221945 -1.8619379824367568
-0.5835226032518169 8.004572919177823 -1.8969573812868985
1.0022614102923737 3.6934582041425963 0.8266644282756596
1.0236078916514546 3.7109662841326037 0.7966109869388852
1.155880348296905 3.7107034967127865 0.8626614924383508
1.1386849647409187 3.7311886859055003 0.7870635335961228
1.2161401597981916 3.785833569001797 0.897208362407121
1.3999519535200706 3.7728003011214297 0.9548068079359271
1.4301876439282477 3.7617959266677836 0.9461088388314711
1.4745454768222133 3.7729303990625853 1.001318340432528
-0.3112419993075004 4.0881422811470385 -1.9638721699171622
-0.302862050638985 4.0141811003317684 -2.0055207737482914
-0.2991851714082904 3.9891816347227373 -2.025959477214843
-0.3422170626063582 3.9122274907510532 -2.2753009798721338
-0.3607518329078976 3.914447826721832 -2.2165649146832473
-0.3239700931236922 3.9037152846555805 -2.2835912531635443
-0.3859867006493414 3.880554221699848 -2.261387710875637
-0.35968515759332736 3.8709517680099363 -2.3556357565356048
-0.43857566568485135 3.7096215787534863 -2.5391888378686036
-0.7431035549448092 4.642181124172145 0.8855705392031886
-0.7748305162039838 4.662994986874522 0.7976774111998481
-0.7855181011385001 4.63825021613615 0.8724731094411309
-1.0425523951744422 4.608865883842702 1.1173949260609863
-1.0482728178853105 4.566168417930351 1.166902601222296
-1.1038675236533606 4.629403006569891 1.222754422301002
-1.124226236990277 4.637913238149064 1.29979900214195
-1.2609469058278577 4.5701452522917565 1.4155137807724418
-1.3635881970199653 4.533447271365194 1.5652109361786997
-1.3372871833383955 4.472500912699122 1.5178707658124457
-1.4701049497752086 4.510775948151856 1.6462262101864256
-1.4471109918885403 4.418674058810518 1.737661025835995
-1.5207242891165116 4.360791861376889 1.7514935806685006
-1.515544952424714 4.367813042123006 1.8667230392855625
-1.6090732190548673 4.357386898959108 1.9025600163364416
-1.6878339424197772 4.3236062307128345 1.986304145226507
-1.6237865064192536 4.241189854612 1.95130948112349
-1.6721878179725544 4.243121990682145 2.0593977568674493
-1.691663947836679 4.246922379344011 2.02102291396515
-1.8275920475566152 4.216591532885953 2.154910972308741
-1.8577337493189185 4.159976477684945 2.2271808151117245
-1.8740973406070724 4.112431158085691 2.2451298527772927
-1.9081960341524353 4.100338326650612 2.2916343250340523
-1.9819105805680997 4.038657000983127 2.356703430235026
-1.987038535409749 4.019070016237075 2.4019475896331812
-1.975027778328752 4.040206158409629 2.3725824925220387
-2.0295532798189053 3.994509843533388 2.445534195407474
-2.1671720324875867 3.8684782119397023 2.5898606629788907
-0.6859158998032505 4.889908359864711 1.6103718020006366
-0.6334015237764213 4.876942821216058 1.7171004857397523
-0.5307776853290198 4.930949547312694 1.9171794115462955
-0.5507142048967651 4.924323403796431 1.898221064219531
-0.4675812178735893 5.010869657705676 1.9094721888303583
-0.46661241496616046 4.992151426786133 1.976388041826145
-0.4249205480443964 4.956373932764696 2.1141102819159348
-0.3302633970817873 5.033977233957618 2.336344629083455
-0.2695149267268847 5.034849240074458 2.4256827751821484
-0.17921371700519767 5.072698444203491 2.5707747922814432
-0.20785896834997283 5.08643175924111 2.678986274084066
-0.16277242039495096 5.0781679907442845 2.7320620788861087
-0.1316142031038425 5.10641610025474 2.90641386452692
-0.11395252384609603 5.078975809200648 2.8239546744943738
-0.14392458138527559 5.105108864163599 2.8765484499220326
-0.10741220945715285 5.084358652575258 2.9132023287958537
-0.07434987206734019 5.083913364111057 3.099830722065363
-0.1148365691013658 5.103965764025064 3.1985685853356007
-0.2386489991199372 5.158825308859152 3.6315294757050904
-0.9532650960774535 4.764085560259224 2.3814694705136943
-1.0042366363272686 4.778569123890703 2.375452963232201
-0.950866140166263 4.709029058772577 2.456472358295966
-0.9801362453926573 4.746924212128118 2.5645417834537465
-0.9935814915987093 4.720827117183851 2.7084339513368163
-1.0124438941619491 4.714161531744144 2.6828878388886976
-0.9852386949476222 4.716021229847317 2.7021042056731304
-1.0174667862248201 4.734171431723941 2.766476682868681
-1.0625740207150718 4.69394043961215 2.8149921193427123
-1.0541254489588643 4.710302652085987 2.9318525134333937
-1.059220024263562 4.682724980768991 3.078560899818153
-1.0674171766652711 4.700089762294982 3.018552479825388
-1.0841666685928277 4.670035536608922 3.1251331882458264
-1.075447675782661 4.666157216490801 3.1988392212412897
-1.103928570769192 4.624882955277874 3.3615365739972565
-1.110346563325441 4.57786470979419 3.4734483334846145
-1.116888924490981 4.4901246647114395 3.686256657084088
-1.151997348920602 4.453300688253535 3.780738428333518
-1.1505470984257749 4.447733192886245 3.746991821957232
-2.126092983205856 3.8893482884344754 2.571296523146624
-2.127847365836032 3.8594315267752446 2.61650223191214
-2.189482968608906 3.830575753133516 2.639028190585875
-2.1406987552679144 3.799004230900276 2.6956982636523463
-2.1719690333424166 3.8017195212938715 2.6626586872127085
-2.1859621115685663 3.7818876289413046 2.692777698514196
-0.06337179261833127 5.096811933203332 3.159238636582391
-0.03217968436432348 5.0897685526555065 3.2167995699716756
-0.03329031096356599 5.064822052232064 3.1762937989010274
-0.04681717631670717 5.076700025049192 3.2063945334603354
0.010504247356889295 5.061389007611426 3.303467026950011
0.027112689278194914 5.048044757481557 3.3542684243217122
0.0773902021755037 5.029392952535613 3.440334779909318
0.13521285399651534 5.011041828486922 3.5669598474893967
0.2366694914439711 4.978178241426612 3.7271905572869675
0.21966907361967042 4.993091215988398 3.7090902811183426
2.320172527859922 4.853464889635276 -0.6591096651897703
2.4394294170964836 4.860992378589356 -0.6666238363925115
2.379110824925956 4.815461558040022 -0.6761623834618012
2.661612119371061 4.774067251022391 -0.6599107136942404
2.672758474518052 4.76045494804674 -0.6467672089066296
3.0060931922133007 4.675551027709541 -0.6764117768200942
3.0176345501479753 4.671860040997749 -0.6932563326473425
3.1184139360196976 4.656315002570102 -0.7517253251375879
3.104575794895715 4.638471364916737 -0.7325535873195732
3.154208748674427 4.6547131835626265 -0.7474815038934716
3.2396794985750104 4.607346447754199 -0.7484836581658117
3.2732993619770925 4.603113905713325 -0.7391868300731443
3.3708317215407253 4.498891717868382 -0.7598300272662659
3.4075763033980415 4.484341741080732 -0.7699815185237403
3.463319900413499 4.4667698641165146 -0.8041812577418787
3.532856942162691 4.432115089241281 -0.8456477013371944
3.5960066404635445 4.391317499953807 -0.8268694589490425
3.9936720320885186 4.140165070293383 -0.8448216495052581
4.090474328953602 4.079986086237748 -0.8447176857749973
4.053859960247967 4.0925492764879605 -0.8109182727530408
4.045693762441824 4.098805342824264 -0.8119721930777793
4.094859883754223 4.052592248383614 -0.7987182581087241
4.11565771833432 4.0366670281751365 -0.8156923993145062
4.254662755446928 3.929272619711257 -0.7921829575532507
4.278955578782367 3.900015544521628 -0.7798666647312905
4.272296520707164 3.9024880624318925 -0.798062245922434
4.378802854621556 3.788305578738826 -0.7471863341971428
3.791581864164271 4.283373644289529 -0.8828276587672964
3.82017758068306 4.270506017068772 -0.8694147102900956
4.064538284881556 4.170165366287455 -0.9723101935279281
4.201708977959176 4.095047827113038 -0.9986073492847567
4.268089403884638 4.079435737818983 -1.055301817448306
-1.4345283010229601 5.13583254393515 -0.9676171237747744
-1.6103204448909756 5.094221603400088 -0.911585594138902
-1.5714425851436518 5.121911239126916 -0.8638878506760236
-1.6151385368539604 5.077626166312026 -1.0023116114716135
-1.7297634325852598 5.139239929822984 -1.0522608401170492
-1.7465534730185979 5.065225363174756 -0.98402483537908
-1.756658843494946 5.11206353880681 -0.978131145124409
-1.89037199928621 5.053208249766429 -1.1083695405056826
