ply
format ascii 1.0
comment VCGLIB generated
element vertex 848
property float x
property float y
property float z
element face 0
property list uchar int vertex_indices
end_header
-0.5737251973034199 7.887813537189479 -1.4547853709480267
-0.5455047013532884 8.659770353902672 -1.5009016984852965
-0.5381007689103446 8.833366975513457 -1.5573675411482353
-0.5523684721779966 8.631929678843544 -1.5555955903057719
0.6850711136873823 7.903480084051525 0.07933014100156316
0.7245243614339476 7.972511978413747 0.07664354762505445
0.689189513349425 8.32794669699539 0.08794516059670901
0.7668951640051861 9.120825709815458 0.16306413848712914
0.7174573613834986 9.126034486878508 0.1826852302797743
0.7846909594471135 9.093123662421862 0.16824281637045876
0.7991863118540347 9.223643868899778 0.17204437238764686
0.788478233937749 9.172090614545105 0.17765247156108063
0.7973828906692201 9.15740062893507 0.14299655569498343
0.7969836131451028 9.163432403616076 0.15544800040736742
-1.0392080019555787 7.898472985387063 0.698194711064652
-1.0317629401244681 7.900157568661109 0.6787250839314485
-1.0229184489199328 8.079135444093177 0.6860589099541194
-1.2064819605860122 8.868257007487289 0.9658310525439855
-1.194551697291995 8.88273246535688 0.9714651875373145
-1.1912770705410898 8.803001418613826 0.9663630937860062
-1.1976274231600976 8.872252157400554 0.9893726710894837
0.7729378425029876 8.019552219370661 1.4944685435797973
0.7784758223389956 7.97766831663761 1.5226777131124174
1.389972310113019 7.917574055505097 1.0103738017595458
1.4033052234432322 7.914839244829964 1.0198359271882205
-1.3635147088668325 7.869094762179369 -1.2229929760516034
-1.360344975463039 7.908825326637049 -1.226006264156977
-1.3828321907113676 7.9262724566750276 -1.2088739344715018
-1.5334825949059603 8.786316987146092 -1.2557930078999944
-1.5103603905628256 8.671439444291016 -1.2734063236662967
-1.4627658982913707 8.600567648244846 -1.2757771110661145
0.6215950279558458 7.988623547574926 -0.1874878135089063
0.6894079583076043 7.990335029132467 -0.2240115348420603
0.6819508707740433 8.027305366538991 -0.18728603173828232
0.6943269663577075 8.01393741338135 -0.26390126459309204
0.6187642905372588 8.035420646995478 -0.27033206715888236
0.7479618881663112 9.007135100181696 -0.3425457514053125
-0.9463619014477483 7.862296609937866 0.3822078218679693
-0.9197885880561415 8.155847944391986 0.367423273236612
-0.945872572413375 8.059893567612379 0.35442588985823814
-0.9987319410159932 8.184473155801872 0.3525543207600964
-1.017420728461369 8.291636993972794 0.36077187578270803
-1.0193747083958526 8.252528264246921 0.37684192099103697
-1.032221712522853 9.072147609431672 0.3760142732350817
-1.010627436909447 8.972757737812557 0.35182171434327486
-1.0338632040348017 8.870551206757767 0.38600440494718313
-1.0624616254186894 9.125817651621512 0.3881797949706876
-0.9313455609428095 8.786643462425486 0.8688410648163344
-0.8870321443829942 8.847974382889397 0.8550220245115397
0.6366457225871047 8.77887121485691 1.615018646592342
-0.36226121834407515 7.867732477433882 2.4584635094976646
-0.4166669429961831 7.872355971730584 2.4791233885317787
-0.5138914424990423 7.972228246100913 2.4942905733320266
-0.5308408433050045 7.960721064605342 2.562027927466449
-0.5422246037776252 7.9499729885466985 2.5552126917995497
-0.6586404280654193 8.04931716210778 2.652309176910636
-0.9504470554139006 8.30321710183451 3.0807259117264403
0.7635219585890526 8.032804475835986 -0.8163540163104714
0.7646451224458116 8.123248357375372 -0.9351341386396766
0.788868299029479 8.195972649044169 -1.0820392125263063
0.7474259738505041 8.2513571496907 -1.5364105164581865
0.622945722533282 8.390652601158772 -2.091217120805696
0.617467245120729 8.443593402028656 -2.27727735689252
-1.747842481648261 7.973270785536523 0.19905199476067123
-2.032970250409962 8.28335399218801 0.004738039258613
-2.6430632122439 8.472604697527123 -0.035749182773118914
-2.6650911045846293 8.509123810364628 -0.06629772813916346
1.617018655017493 7.881115202484961 1.6780026849764502
1.581477319623828 7.851036784717814 1.7333186260496836
2.0186580622945596 7.951481876861789 2.1364794711939603
-0.520179430574274 8.233777753066157 -2.055472505206707
-2.03838831807124 9.248701435867172 -1.5699213392739864
-2.3653373685909727 9.562052987420007 -1.704590634499364
0.4432823576664918 9.627518070216194 1.9711583880545829
-1.8870772533253206 8.848008934893562 0.5314923914730534
-2.178626360135897 9.340133636051345 0.675777241028383
-2.5205860919254723 9.532278792374461 0.9619934592284289
-2.8189609929263484 9.715696767735778 1.1453491303828116
-3.0474869918715286 9.779933018455829 1.235655087058332
2.2069965566082823 8.985622167823623 1.8692133450919268
2.4660033693578307 9.153271274008723 2.1303654898446114
-1.68563081099851 8.636100488202409 -1.8253305763998493
2.3023667198808457 9.22540733875396 -0.7724899924126584
2.3638387270540546 9.277316403147633 -0.818645058872767
-0.5216729775058148 9.577611026623108 -1.749080882990977
-1.4021834454569329 9.561196195375379 1.1390755050281214
-1.7092236914424823 9.972151920849155 1.135565618601012
-1.6863212896563693 9.910633790799016 1.1806788504698416
0.8861580171684521 8.849753365500023 1.975539396116562
0.9370254595574508 8.902498814203668 1.9539756692061234
1.9240607022006222 9.301966243501338 1.0448023497400059
1.941858276859494 9.33681195356929 1.0436702161485099
2.15512283371885 9.57867897899368 1.071490063734017
2.477708494516704 9.966194950892575 1.1069737920289442
-1.7860717627620282 9.809279058859525 -1.0928153615528995
0.7094405241119809 9.398760838765927 -0.36899827913708105
2.450470954199386 9.128920851179377 -0.25006415783686403
0.6306378043111519 8.835094508342927 1.6365835544262868
1.3356753284398752 8.694390286256965 -1.5741852516745918
1.3467438353919292 8.691972549186193 -1.58043066241237
1.659477653054196 9.073964334659651 -1.9239646354054503
-2.1359610658296524 8.463420421028625 -0.23064282006698236
-2.7821581308170202 9.227878400619609 -0.8125460984489872
1.2665591076317406 8.766131264857727 2.619030371286315
1.6856198863049072 8.190598085669048 2.3080691379808873
2.414509625903991 8.247011412906701 3.3323489936453994
2.3465221826190428 7.883268164860601 2.5384307942987028
2.080013515917471 8.200838360143521 3.0576484553344363
2.987152146743987 8.90138828397231 -0.16673748650338616
3.0302500188534722 8.961263563452766 -0.17693048562725944
2.9455285378335563 9.62517189887579 0.4728181546047451
2.9923504230153566 9.742534027235846 0.4093934879219515
-1.859015199667518 9.501068393858208 -1.1520451220345145
-1.9365236452756989 9.602166927191522 -1.090284200769952
-2.2839707171525627 9.46099142265963 -1.7557867820129152
0.4316314299075566 9.48897750441063 1.9269681418692053
0.2518864071947791 9.666792790376208 2.127534598092434
0.19330802615481593 9.7291664302531 2.22251007382172
-2.075676655483226 9.275565051580914 0.5625059986889538
-2.4391317717473004 9.879744927222506 0.3640124665256219
3.042114159296985 9.698450029220929 2.060407447262394
3.081385226470801 9.395456138295982 2.93132
-1.8867975334658555 9.991008100710681 2.470510766468245
1.3845200020228703 9.36686400356724 2.838439746384661
1.3845959075456138 9.356954875300799 2.8360547789188537
-1.6999759758484183 9.201742892673 -1.3973222789158406
-2.587518430199574 9.854998771757812 -2.5084110785118634
0.7138110179887674 9.842507908292202 -0.493793149358047
3.2020114473157206 9.261177854673674 0.15259645549273312
3.177084401054493 9.25277860735886 0.14384082476042517
3.5647724742927838 9.298540676459991 0.2797473251166299
-0.6712869892337794 10.065434521597016 1.9424087798620508
-0.6562540815045766 10.034594308515333 1.9679693772661713
-1.6046801377379811 8.127376332643605 0.4218197473436695
-1.8331896512822423 8.732028893594933 0.5203751753710241
1.7389347951808694 7.9946705875163016 1.438054629111819
1.8371994552111763 8.345411893700774 1.5367209690400856
-1.456154053564749 7.920004376411189 -1.570133060280179
-1.5783741161797293 8.297604761359988 -1.6586726807584062
1.8233547096033946 8.030460723676596 -0.4035453843867083
1.828668966597979 7.99466396229794 -0.3490364239615707
1.8937723065486027 8.107415512703968 -0.4003115423373669
1.8600680830171432 8.018330101287757 -0.45193841416616604
1.878239301900029 8.058085456777205 -0.42585890119296127
1.86603841214303 8.09768529281393 -0.46082229227243754
1.8820623131552146 8.199530759917021 -0.4766219762833037
1.8910994678385369 8.218588306156121 -0.48417313851325733
1.915549222810839 8.226139031026687 -0.46273533367806274
1.9747235577848472 8.410339861824555 -0.5546618167377424
1.9778452857642659 8.486738742697638 -0.527421634174904
1.9866063547656294 8.442146556370922 -0.5366645022103022
-0.5481167191324761 8.144629909518894 -1.46719217501617
-0.5274433781513894 8.096574713226529 -1.4310264750081798
-0.5444965113251271 8.0658271720367 -1.463776676524607
-0.5799506282702943 8.134743443953456 -1.4706450438753047
-0.5688320794628529 8.262517819763525 -1.4771429884969873
-0.561776485365344 8.485760534996782 -1.4850935614786085
-0.6043167146903323 8.548866852678078 -1.4868439834992488
-0.5535232901033491 8.38287417239626 -1.5163478785622757
-0.5454180838524284 8.355445182278073 -1.5080223248854994
-0.5686934839463194 8.384013167206774 -1.4862876971217711
0.7293345206818489 8.491044135874798 0.12180097383994756
0.7318748291933231 8.509637757783157 0.09887438389147928
0.7203668618033834 8.62311538662795 0.06175835304624562
0.7140763156211417 8.495538557312369 0.03681772999489982
0.6897535799191407 8.374948770754568 0.0560055477122448
0.734658559998787 8.810281362543785 0.11704997174176152
-1.015745532401082 8.382751501211573 0.8019706004127242
-1.0674040410713481 8.342919603927564 0.7807461472004918
-1.078377634330148 8.616958988510648 0.8738152336746444
-1.0649760309384464 8.514691155398658 0.8533682084049631
-1.1169360357015614 8.522240299843348 0.8542619398525821
0.7789138313953934 8.047591557154584 1.5164116372188328
0.7615932254741141 8.045129533620273 1.5249001525301837
0.773810430753865 8.120837348210138 1.5645829554724715
0.8436076561935264 8.114571318888915 1.6093327629565026
0.7731961129692136 8.321862739245972 1.6393026370645125
0.819956860601096 8.292060416692125 1.6985392344708974
0.8203029366286624 8.643358123869316 1.8018930089747782
0.8729239316889883 8.651980294362366 1.8259074390494394
0.8677868885829324 8.738897761960628 1.8805909588465275
1.4783616938640356 7.950144446673789 1.0070207102283537
1.505036541766081 7.9827253545460675 1.004949346638522
1.5429855435987525 8.385065622861633 0.983580398004628
1.5585266497524208 8.352545441167237 0.9758031386030548
1.5615728863687335 8.290751420799504 0.9677181219532324
-1.3488104002896375 8.021789102962028 -1.2511984821084898
-0.699647676907642 8.111830240113031 -1.8211669668405173
-0.6770510331638203 7.967923607019983 -1.7754435512359927
-0.6397441031218714 7.985012724225803 -1.811008782966119
-0.6683201133788456 8.067933694519784 -1.876665167538557
-0.7137220840339995 8.42270089490251 -1.963379561524604
-0.687667758986524 8.479431851843199 -1.9991087994289398
-0.6742999444626944 8.417223058212063 -1.9813901449518736
-0.6838212099766855 8.402192879105586 -1.983140648775967
0.6816139426091511 8.517876252935025 -0.27396252865536985
0.6604455539376964 8.355643056529606 -0.29790802185552034
0.6875232781898332 8.748716143367101 -0.3324261636632888
-1.014395954832139 8.691733998246988 0.33591647488156595
-1.051309991592761 8.628639847424088 0.39591098731685576
1.813787241158333 7.983416811732859 -0.32379326301841704
1.924971652686161 8.171461298877485 -0.3398004054962105
1.9228141428838683 8.190381684528054 -0.327267561066323
2.0219709264621333 8.434745083052436 -0.2843715229508073
2.0460140047361786 8.4767038583688 -0.26781175389721557
2.089102582730704 8.498632121239721 -0.2634476284033999
2.04809766263503 8.397798682842652 -0.32439844806140067
-0.9479334256657719 8.1233535668257 0.6717661097977734
-0.9683904341653664 8.052812066128874 0.685910563921768
-0.941621717429421 7.988748750075778 0.6477384133695369
-1.0002768480038489 8.01027339669453 0.6417287778196056
-0.9959244980521875 8.070134066572868 0.6938556944495015
-0.9844138635651046 8.01945960757662 0.7462660845020486
-0.9441577629230042 8.242765262068799 0.6965335633669232
-0.9282371344176676 8.238076779164436 0.7561447412776903
-0.9254149578492068 8.216475843213694 0.7509149464460249
-0.93718034789428 8.599913287862028 0.8013410553471149
0.7530539681518302 8.117761234491125 1.4971368658001771
0.7647676605238546 8.022482790219202 1.4498634110061015
0.7186057605347337 8.043273291226251 1.4523643212759556
0.7458541459875876 8.151591135057675 1.5137626712822296
0.7394717002174472 8.196352083316402 1.5167320375816915
0.7288439092731959 8.304474568244196 1.4947332820747512
0.7326916693928403 8.257490919924894 1.4840948676788808
0.6906511933847084 8.34420078384105 1.5192759839126917
0.692052231291589 8.348261833935007 1.5274232589638315
0.6692440811271517 8.545603552916045 1.5609504538206076
-0.8140885228217537 8.185577728735476 2.8710877140221776
-0.8010062357384368 8.165694647954929 2.8056623420754323
0.7211374891588123 7.959815675275724 -0.7568004572621766
0.6956286914811544 8.333764739626613 -1.8398974553057807
0.5879375789809838 8.456193410537686 -2.3485506301826904
0.5863118352382931 8.45181963761212 -2.494208859308354
0.6128770055862934 8.436192046664152 -2.495205843364557
0.5917805365432017 8.449939283114226 -2.5335045464045334
-2.883673038164598 8.572248245655173 -0.10126597986744917
-2.9335487930165565 8.59517151680318 -0.12014661974888147
-2.847554224521012 8.538027268421173 -0.10048009431467207
-3.4047563901011353 8.63996229497961 -0.1004448528522891
-3.4669298568379214 8.643482844781955 -0.09655391846725651
1.6162926406002143 7.865200807213946 1.7269275954842032
1.6988639307233675 7.9286026456043235 1.815010225829747
2.120768231910359 7.95777365389463 2.2233445779630965
2.439763230921497 7.925261528862913 2.4645550438843435
2.3846319249536374 7.921666813953607 2.500143310092457
2.4625364500117235 7.9082707919679205 2.5200944060101094
2.785758232179936 7.947756733979605 2.683441318987727
2.902409117198157 7.915558096169572 2.779161009543752
3.0352984830201604 7.914985658622635 2.8412823073630786
3.1177245105650906 7.896782840783531 2.8956714060054116
-0.633606572846759 7.837360504828513 -1.7650949713898918
-0.5992675894752998 7.897069913431655 -1.8077635156652925
-0.5776345273304546 8.036477764103097 -1.9054422456235713
-0.48727421258191855 8.282536845990709 -2.1172155911624055
-0.4847745614928115 8.295202784863514 -2.127703588438133
-0.41275183194102155 8.498797360688156 -2.2632818102369985
-0.3926638956377656 8.541191772065469 -2.3557036554943225
-0.41440715161945346 8.575504923815158 -2.4089085686859257
-0.38951712702276897 8.636314761716594 -2.5766281668297286
-0.5125411660435671 8.74853395446083 -3.001875488458672
-0.5582013270107262 8.808953810789466 -3.1797842146035
-0.5327235906350334 8.844226139519979 -3.313458302502501
-0.5339399460746405 8.846490908042856 -3.308695905195746
-0.5775635732275176 8.87583279318715 -3.387360193031269
-0.4987996965022341 8.867015267000548 -3.6082317769599483
-0.9170333395339266 8.435232227412744 0.8049093956974036
-0.9165183737138518 8.391938260375293 0.8307615707484234
-0.8562761341635962 8.624603845972384 0.9753529272339962
-0.8301123359113548 8.783537249982832 1.0072980713662207
-0.8280447057686529 8.780079385808508 0.9825469814077169
-0.8158883358269 8.749055972092187 1.013097657666854
-0.7717109581899877 8.967450981419852 1.1349688583777908
-0.7270808365761017 9.095210242011605 1.2871401752656528
-0.6975966472822585 9.245763391284555 1.4786476240796202
-0.693074475274225 9.291511973982681 1.4820682153250246
-0.6573916368408614 9.363082447074785 1.6251954615184299
-0.702936351380974 9.259693875320767 1.5101037198644445
-0.686560802349559 9.290072622743374 1.521014974561825
-0.6833112162082995 9.25236679920845 1.50506219313542
-0.6514885284093898 9.422972085393312 1.7193928236598637
-0.5334236243126025 9.763454098952451 1.9147953187339093
1.9852785553482657 8.266410523169101 -0.26390366117896086
2.140353655261627 8.407557480647101 -0.2245717591916555
2.077074886556918 8.379791020964415 -0.26883812747168606
2.307144680832811 8.828894238157003 -0.0835317847198526
2.288699094186889 8.769130100979735 -0.09564498250870777
2.2776044849867754 8.728355482844854 -0.04574905258781681
2.3576742044756327 8.866805393132378 0.018756205529736357
2.372793690796461 8.92015846106701 0.024555222423931815
2.4907866992652417 9.137069834170733 0.18042917480585988
2.5231952606264745 9.180912641122207 0.19541908727098806
2.5915317651814256 9.217514983785188 0.22580532724071994
2.765258174586962 9.430494915984221 0.3473587696239808
2.7081169504731517 9.371962785199267 0.3092668883334393
2.7464160856257003 9.359732181080654 0.2941436184624786
2.8842121610471008 9.61321382155298 0.41725605389136017
2.957082330289603 9.656400394686155 0.46590858927632783
2.9365544029394703 9.62763685775907 0.4484007604007266
2.932833338947397 9.630693094851795 0.437707491323693
3.0049154978842862 9.70276873748287 0.5013146834098795
3.07518822455597 9.745917032178617 0.5447741932106606
3.1392495969155267 9.779224794460305 0.610675010605888
3.0901849924217575 9.74988072439186 0.5748835664259615
3.136607839641896 9.782568682506877 0.6059885685109001
3.1260892521564343 9.767064004648978 0.5999673533825906
3.1830008073468963 9.816380553927463 0.631347649362863
-1.5222848131254791 8.498558674971537 -1.2770197815924658
-1.4928422564767108 8.535801277148064 -1.2553196223321466
-1.5113189938001597 8.665219568733633 -1.2853613124874768
-1.9153908049097677 9.156489728712165 -1.487600913915199
-1.9613466839455727 9.239024294420018 -1.5493593592091157
-2.072855421731831 9.314937975941701 -1.61596592308557
-2.0528426921039102 9.28750696540319 -1.6043465417095955
-2.134341630042376 9.35580331415253 -1.6534478402969985
-2.1601259296024047 9.34433358954816 -1.6530119911500758
-2.225365345426988 9.4029816669513 -1.7248037660165647
-2.4350773896280913 9.65355545988978 -1.772859993965782
-2.4831689761438187 9.770317437079703 -1.7530703989559722
-2.6748109043388397 9.946370687466809 -1.7770022196139947
-2.7298536104617734 10.018438197385652 -1.7860798696680626
0.6368631465994264 8.87848351181286 1.6600894985054306
0.6198480642022652 8.931545955396148 1.6339415152648529
0.5928730337301358 8.907314470059465 1.6480558354656605
0.6070934643806675 9.0049743222636 1.6706065746817311
0.5623246582290208 9.178601685772163 1.7251492821664793
0.5454475011572364 9.233264331913563 1.7393922875644712
0.5091303482114735 9.266796235303284 1.8064226336648785
0.5302992022116887 9.292150384226261 1.7869147016490152
0.4795898979699619 9.51753099008493 1.897937288383798
0.49094645756323974 9.64336001664157 1.9335671824953902
0.46603255678840966 9.633932475027628 1.946834264936275
0.5495168694312053 9.991174761276225 2.1072120151011067
-1.8878124930918048 8.85512545163635 0.515468172190886
-2.020077418942349 9.175291521040176 0.5456286255903576
-2.005458952975875 9.096976078194999 0.555917495780814
-2.0879723442979174 9.280621712856368 0.5948648718855967
-2.0779071806545764 9.266850490647975 0.5713158017753787
-2.1235367749875507 9.324577780409927 0.6235479006462202
-2.173777750976001 9.37178128295256 0.6517868350038438
-2.168741896956796 9.32684960121848 0.6634937624956984
-2.3481352199202483 9.461717287771943 0.8165093417935532
-2.5113756854579004 9.549460558299995 0.9380213636969703
-2.470556927077175 9.532708732572615 0.8995662268900385
-2.626814521928736 9.587111758579908 1.0375356563930331
-2.907741604807003 9.754014384455925 1.2073595917008881
-2.928918424550303 9.783800021533857 1.20159055648755
-3.0201017028450035 9.791291782481501 1.242823633628267
-3.0381368606714605 9.800585603038435 1.2468760276147257
-2.9876185575175565 9.780950297175387 1.2124949005686352
-3.384044743853766 9.816229884220121 1.302087529456841
2.043984930072578 8.6462055133375 1.717683325443114
2.056030601681419 8.717148679656402 1.7420089510309535
2.208459951269085 8.908580986440938 1.8355498427523587
2.3273764825963448 9.074637452052636 2.038054159852662
2.45530027986054 9.106896161909532 2.2010257335092627
2.585434708556772 9.145644104090222 2.4466629925304093
2.7217093604840508 9.103857532451826 2.7933836707792095
2.7614502934335308 9.081789737732207 2.86089481302277
3.007429465791998 9.044933141571315 2.9935563500068323
-1.7145231393566434 8.65197612871873 -1.7797374090367806
-1.7305191788491279 8.737260443185262 -1.7977221663408591
-1.7196508432855295 8.729073582025991 -1.818894789132208
-1.8667024499446956 9.012845101050933 -1.990168600313805
-1.9018009336350308 9.07354007787556 -2.008935586637849
-1.923132093238677 9.090865799438474 -2.030365038372386
-1.9213577860752884 9.105540683700022 -2.056843510054687
-1.9467851470130275 9.161419048489213 -2.1033664961216743
-2.055654945176015 9.271253391150966 -2.1572561449835073
-2.0723251220788583 9.286684015024589 -2.2200524736837925
-2.148428528549438 9.36047075406827 -2.2701634297352205
-2.32579858136301 9.529385623515177 -2.4498883998494927
-2.457412630878615 9.695413209057017 -2.6088619025526087
-2.4830902318883914 9.709847894517422 -2.6503622062696244
-2.592043068568523 9.81150102620091 -2.7664289462446248
2.04134185543822 8.708362371647484 -0.5979135210810984
2.1084676346331497 8.832292873691705 -0.6490898694340037
2.1422723798987313 8.867564696213508 -0.6654003927745755
2.224724694140277 9.092350111990102 -0.7473634789115973
2.3385111872903477 9.206461672457959 -0.8144449133613264
2.4102933578610357 9.354956597799465 -0.8413411125219741
2.3711946439184577 9.29423162712311 -0.8225849938175969
2.394968256306794 9.330991464861285 -0.845449251142709
2.6026772312626196 9.536933875718256 -0.9815366464382452
2.8759782505454208 9.743213958049777 -1.1908747011826555
3.039040893480296 9.861982875933206 -1.3371017532262033
3.0467775652756175 9.885419562998571 -1.3530972661322778
3.1060958594224473 9.899113000640286 -1.385170609288305
3.2606672777888583 9.982318494228267 -1.5076277308075454
3.3170843833426367 10.02176195755929 -1.5480388378059904
-0.5710685136404674 8.989053156064667 -1.5372308589346468
-0.5610656034002742 9.11659004705855 -1.5967939668427458
-0.5374206049091746 9.329111731083524 -1.6763819388612096
-0.5693781745864434 9.386926283852453 -1.6570699942371394
-0.5279596314580128 9.482495127241908 -1.7201548226237255
0.7871788135185984 9.330168086205793 0.22321276752573443
0.8393739949661455 9.65266822541701 0.25602303241959223
0.8518779714288767 9.71801727058181 0.29360300045972965
0.8292744753657064 9.728868272016467 0.3369405853088337
0.8800461717873294 9.9445675425552 0.4134527221437646
0.9109072662433075 10.037217306541645 0.41650776813323953
-1.3473998503810871 9.47789642569267 1.1550094729641025
-1.3385065381547994 9.391775229325406 1.1790518745714942
-1.3117230332304604 9.354197455593994 1.181742151181259
-1.6489310265295927 9.921497053014443 1.1683130082208555
-1.6776786745457068 9.957464946617113 1.1632741512148699
0.8640558034793279 8.767619559098893 1.9065765718207568
0.8888676723994285 8.944460625394077 2.0281476541947696
0.9004355122494542 8.931409027357976 2.00572283798155
0.9445713504475044 8.997700039120925 2.0810821274156
0.906270173307795 9.171344872082905 2.1288657141598715
0.909243764511604 9.247151133259589 2.190482172040175
0.9096556223466994 9.207338375993235 2.1704283626094667
0.8520417361867033 9.365343472452809 2.236083746202034
0.8457685707789838 9.457558504736564 2.316424256799247
0.808968693433784 9.618201432625295 2.456682908078123
0.7764515823266332 9.826977675329838 2.5820063335617545
0.7620881956958356 9.876252768044669 2.6671965838412963
1.7843017923799915 9.010995630655673 1.0254974126242704
1.8382221420751996 9.050955393637771 1.020757012403351
1.9778599243288097 9.371819918745008 1.04015693959593
2.0284044389964446 9.510713969294137 1.0604638984179504
2.0151424336102997 9.415933475005223 1.042491409869335
2.171641882662778 9.660187632004776 1.0888210826934075
2.1428964715712335 9.621824886494304 1.0775989520025457
2.290736411207126 9.797568291404225 1.1212575655809012
2.4272899496773404 9.88902342509132 1.1004694900180132
2.5443723239851206 10.012521031415332 1.1002743850937111
2.5075109807812916 9.968979835232062 1.0867477900142384
2.635976441477236 10.055803363795064 1.0661382189628958
-1.5253115656478358 8.763772399526877 -1.3083544895495454
-1.5329313914999616 8.819171123954456 -1.3179159851689326
-1.6219662772375558 8.959757921526437 -1.3410416653599402
-1.6189109381207272 9.10627070880044 -1.370399014003108
-1.6515159880213246 9.200657074052927 -1.361028895262474
-1.6540387221637134 9.257842091725214 -1.3634580405251222
-1.7033695490234448 9.288924034760033 -1.3280294492201554
-1.716483465323311 9.316414491349992 -1.3076753891786874
-1.7588254987592236 9.644807051497123 -1.200835384140786
-1.7628977051325363 9.662904994473589 -1.1890832295253972
-1.7661291822793597 9.762874840717851 -1.112927056533363
-1.7802006029120658 9.781205150723345 -1.110189658616508
-1.7611293845145888 9.761847948198676 -1.1265864603112408
-0.7344071422683169 8.676623065594963 -2.095505192410459
-0.7484213707127241 8.802216774340238 -2.163320201676439
-0.7497131175061834 8.988662641151393 -2.2737529225705195
-0.7729665598080506 9.281648739655536 -2.4624659703686023
-0.7757172351328216 9.336849416393296 -2.586619229307127
-0.8225694146015459 9.532088230745122 -2.7791960655786427
-0.8518636970394402 9.605654057031364 -2.845387170203026
-0.8478571589080798 9.631900046469598 -2.9007198929976394
-0.8513356606421775 9.651577604626244 -2.8924857462607654
-0.8779292613282459 9.813238077486245 -3.0853213092097147
-0.8596782016701815 9.788595207173625 -3.0754746841735097
-0.9039203970267291 9.922143901937886 -3.2092879118485005
-0.8868134841421631 9.860752928858899 -3.1439229313109016
-0.896130710389654 10.018791176449573 -3.4266403194676163
-0.8979710985876508 10.031585704439223 -3.4479899392785733
-0.8979295040211764 10.052322926997297 -3.51168776687528
0.7274206450863239 9.328792867908486 -0.39353279269709585
0.7186487636470529 9.384521775935267 -0.42484265250980535
0.7237085722400446 9.58093564675418 -0.42376374341594336
0.7218401416675784 9.562598392228415 -0.44620238257491646
-1.0514414335316655 9.347124951771942 0.34580313708395266
-1.058003996740128 9.25865794946305 0.36483255985330093
-1.0785365682560073 9.608315649801805 0.3442401278275311
-1.1197819480951499 9.708609589242078 0.3543123140006787
-1.1242551035729265 9.677134157598466 0.3637628023710472
-1.1322795669452703 9.663943810917857 0.3534546497876166
-1.1865289476146907 9.871989972345656 0.3347878437911779
-1.1878262397249917 9.882850765055993 0.37245870197927916
-1.2323279195127599 9.995033140959166 0.32492264525656683
-1.2831333774630669 10.04403004737443 0.30920111282604673
2.3449017962816865 8.941741080715145 -0.22722999273665695
2.3757809929669587 9.02230812181033 -0.2718224628039245
2.437617505114757 9.224468617532072 -0.29473095848053066
2.5204377111762017 9.281211901454276 -0.328829356815348
2.491108467853804 9.365661061471968 -0.3348974168800654
2.715110197021144 9.695226233977857 -0.5207747764367091
2.7852503965372657 9.823688789484022 -0.5777438767791215
2.810057067002281 9.916985663856718 -0.6099743153635259
2.804294748791116 10.002952379662348 -0.6393381371191442
2.814127866453879 9.978378118914842 -0.6290883579876478
2.7898531442579317 10.044575491432521 -0.6434359662872603
2.8038106265345677 10.019272960085877 -0.6413710489034706
-0.8162401990889804 9.47293806846779 1.0328967440362473
-0.7101071213471487 9.65480335590284 1.1905098893138077
-0.7098612972544497 9.696444603422737 1.2299972162886872
-0.7266746650195725 9.640830819270851 1.1877555609185841
-0.6633675180859623 9.773896838900706 1.334064230405324
-0.6028549237848141 9.87575031578151 1.5121123656163618
-0.5921308715498667 9.84997024052058 1.5071832211301557
-0.5346515033701627 9.934062907472725 1.6369820423446464
-0.46835634351983135 10.015832763529724 1.7189502199607096
-0.4457076017630408 10.030008250708153 1.7150636412601303
-0.445408121210879 10.06405930939367 1.756079125065786
0.5854072972269574 9.153843387698824 1.7002041720049117
0.5887831632624111 9.301831079519335 1.7189707948801818
0.5422610165331945 9.38269261657835 1.7769644577522647
0.5256415334690245 9.384659548625471 1.7991849025945228
0.5081629204155526 9.487985694543124 1.850713668676799
0.5081008008263884 9.479378686381027 1.8534798549915679
0.5214482546164679 9.678786896872356 1.9073585062623166
0.5792213411974995 9.900190067704145 1.9952403544552408
0.5471206371029568 9.918152346416836 2.0269623947751145
0.5781882652036258 9.916375542188497 2.001870066299918
0.5953774299035651 10.066843540206648 2.0820015559296206
-2.577849871626378 7.943036984172895 -2.471267861514758
-2.6820287021467837 7.973966437287988 -2.618621848425387
-0.34149009617966086 7.852828439891821 2.8383883571868305
-0.3724979342262015 7.863906722847506 3.02279018446837
1.0111431754193063 8.352600137249627 -1.209440276089606
1.0664708626592978 8.481002879954017 -1.2428622121546145
1.1197296145773674 8.422262627853392 -1.292982190226924
1.3199060366206652 8.64804923299443 -1.5415756677648331
1.332784708644426 8.691479054980135 -1.5643984533078417
1.687763208330858 9.081780931390835 -1.946069413504257
1.699022564592168 9.131421193017859 -1.973770222994222
-2.256985820489983 8.624654677853433 -0.36251555549750203
-2.652096534074695 9.061189301181114 -0.706142836238632
-2.8915279838897727 9.369928848192735 -0.9157330063600748
-2.9118995189121413 9.375006600435729 -0.9016515044319718
1.5464605418083226 8.020093328372147 1.8511456774271262
1.5612556485559026 8.14179196977439 2.0554093681373375
1.4044050940471657 8.432772193422705 2.318974206622187
1.3433519127373974 8.582274297074804 2.4684594845552934
1.3191388436191045 8.619930959637022 2.4877969307630967
1.3168830258735136 8.6356750176083 2.512643606074206
1.3243132726214988 8.651802680771663 2.4908478954759437
1.2879024211993502 8.690235607943684 2.572026871755456
1.279669340006088 8.74642763795742 2.6275239743183647
1.2672204943577405 9.230367730617074 3.0980333501035893
1.2856033602092218 9.311198095858817 3.1743388814840423
1.6527285605337747 8.198367803582713 2.3045458639228764
1.8092335230247194 8.19555762948563 2.562175168376864
1.9064442901316991 8.241117589653001 2.8135695707592827
2.089057700693035 8.206475354989871 3.0049311695173513
2.3099555503626124 7.927428028733319 2.417298551751539
2.434398567430449 7.855100489472036 2.6744982047989803
2.466334098436237 7.857631719239206 2.718522526116045
2.1984716137957023 8.15143087655536 3.4931904388477353
-0.29909378038356293 8.61850943974372 -2.3830955017566247
0.10180963033440463 9.268323708918764 -3.019275482856708
2.2509472918815194 8.593030255019588 -0.18360028344418478
3.0350792535853106 8.924307714627377 -0.1690813451796591
3.5284762545382486 9.073320386503182 -0.1574307136183665
3.5679232707729445 9.110996240307951 -0.15731559973186302
3.543919596657177 9.08055356427197 -0.15375968247242508
-2.3214683925222137 9.755383695769464 0.42060140695412357
3.05468662185587 9.239357205419505 2.655950357833179
-1.6635010924084492 9.85814048020487 2.257879011063713
-0.5590765329486527 9.945395535443444 1.7167591779194478
0.1527387874216463 9.957050278630883 2.4519232274333045
-1.6916912343460333 8.210022473835506 0.47243331278721307
-1.6292305103591722 8.173828859135217 0.4516214242708385
-1.7291618287690467 8.419224332414863 0.4607894712645438
-1.7584250281212785 8.527437721515058 0.4835354074182068
-1.7804407992728413 8.485394410703138 0.5139980813084204
-1.8365565444547685 8.783892308784116 0.4913761518517854
-1.8520023261235241 8.800195639810184 0.5122063113921459
-1.821371492795114 8.713316272842386 0.5173907503778652
-1.8177937452580732 8.78623510003268 0.47900276990950386
1.6514955943652574 7.917748510315018 1.388817640297263
1.6888185682904395 8.014162765200002 1.4370317441901332
1.6365408026298742 7.9786419719824435 1.44310795927832
1.7206153835834535 8.21209255999372 1.5233652908871478
1.7336448751552298 8.144203841186064 1.5225379653489521
1.7538221202853477 8.165936371465959 1.5094572347162694
1.7546760300925703 8.058647870397852 1.4451455631149768
1.891398733075865 8.411222289694127 1.5827570907060926
1.8818841592413942 8.417726364839732 1.6062084821281002
-1.4861700238675177 7.981104051625311 -1.56253702480496
-1.451400726931161 8.029554453097003 -1.560117342353485
-1.518319270145092 7.949850127433914 -1.546234076227117
-1.5930907547378501 8.186709202807101 -1.6332687511838397
-1.6453499659723183 8.519214624349862 -1.7333845100797722
-1.6381429482527952 8.506747773333416 -1.742412055947819
-1.602357107615344 8.41664514650588 -1.736843850982877
-1.6516236056375344 8.527133027461486 -1.7491114733968525
1.7834366438652405 7.88391711348042 -0.41647013845931924
1.7623808567623385 7.887506081034462 -0.3590386570480601
1.8036670657358773 7.884603000006483 -0.34591770097723124
1.847056106641057 8.010779038526529 -0.46169510404882774
1.8754209455245547 8.218932046663559 -0.4520277801003739
1.980007964268167 8.388060617630488 -0.4910182939052139
1.9787758105542936 8.378517023693297 -0.5145510152586186
1.923089313184783 8.256320751234254 -0.5212009350037273
2.023262855835083 8.650947025608698 -0.5805692729425743
2.0047782252912776 8.594842496476538 -0.5845734355087244
2.034655795394605 8.634359242002098 -0.572338355081259
-0.5918294276633556 8.1782008995779 -1.4127801008535534
-0.5523981808040016 8.208125366675068 -1.444645555534117
-0.5458776836399262 8.330540740306065 -1.4755488006210025
-0.578635836324741 8.501026625136532 -1.4723460711910785
-0.5998577983040523 8.464216208108837 -1.487083990177382
-0.5993261909269861 8.524400121983355 -1.4925127603764927
0.7125508930465074 8.530787142163742 0.043025420823392085
0.7503896874237228 8.79184902452272 0.12428081119515866
-1.0993469749283467 8.453571123712678 0.8166710773391852
-1.0822997042362217 8.46747256513416 0.8308263624410577
-1.1113590455134235 8.436742754464063 0.8723335322039412
-1.0583383981091767 8.389368518939573 0.8317666488508376
-1.09004443017516 8.65285825495931 0.8880937394579491
-1.066162059654416 8.512112652273077 0.8599739055295064
-1.0958011340330105 8.653557841084782 0.8809731033114043
-1.097728255600217 8.63653363097118 0.8777945165273726
-1.1574805024199375 8.714730043820227 0.9074989084759797
-1.1517528190654533 8.538876170524313 0.8757239881467065
-1.1993468918928931 8.980565256810861 1.0025924633483991
0.7669440105302037 8.080003491242357 1.564594080315883
0.7922028953025892 8.085859928927958 1.6051277852741284
0.8480327883428536 8.503351201917411 1.735698228147375
0.8573685040560619 8.357803186748102 1.684306357432291
0.8404892369231657 8.285889278748655 1.6441960306227998
0.854954997522492 8.448591619290157 1.714040271086251
0.8368353731549433 8.490529919080947 1.7786649358383773
0.8871941164655281 8.608623276037532 1.8318794771028175
0.8654150306243991 8.707470254098062 1.8545043517725663
0.8316817863920193 8.691115974781868 1.834308156822763
0.8720197735203168 8.615782162720988 1.8233697220300769
1.4165810054037258 8.007911996273466 0.9764816524192417
1.509700387956975 8.062022616917428 0.990096035033092
1.5925417830123607 8.398848150983937 0.9649898714963736
1.6005337953499348 8.48043556183983 0.9966304209444671
1.6011076292394242 8.441807310529203 1.0436675381210958
1.6828611021093485 8.73331690854645 1.006862482064406
1.650302452207105 8.558771557320052 0.9786734533268776
-1.3769364051001194 8.133370150790524 -1.2489567416233525
-1.3415335011754246 8.098120433337005 -1.2631725940139595
-1.3770223140813886 8.006437201551968 -1.2194410067062966
-1.4181721917091434 8.344270076899154 -1.2382386488609842
-0.6549374706280658 8.061192703010962 -1.845036493262659
-0.6816600362245521 8.3288875848643 -1.9844325658840147
-0.7099456320538207 8.324810601045293 -1.952974212678751
-0.7310962447068767 8.669641927801912 -2.0657253889919684
-0.7424844925517154 8.544653090678123 -2.0354881154820412
0.7012228274873521 8.475592818745177 -0.27889723825039203
0.6852099663197916 8.585198897402085 -0.3484281124062052
0.6733331411158213 8.568666891426425 -0.3070278299263977
0.7041467524838531 8.931833740175028 -0.37936516099861756
-0.9985615112668935 8.36714206096159 0.37996288450317095
-1.0032589925962212 8.740827992769322 0.3575324475985978
-1.024256050191179 8.758353617938198 0.35559762182404286
1.8194623822686042 7.94161179892882 -0.35273228034260107
1.8862633880227064 8.035130478777713 -0.3209731513518633
1.911716011711394 8.113792975582484 -0.25220549370273865
1.9103594696381219 8.035441957624432 -0.33019388539507016
1.887291113596809 8.028762261453657 -0.3563811612820457
1.999861726049607 8.350576930879313 -0.27689845308399474
2.0409195810152316 8.374997412761388 -0.2679587741350028
2.039239882645521 8.38833628371411 -0.2830909502214057
2.0115530229159266 8.335729258890172 -0.27217582479644575
2.127042795796129 8.629826801259997 -0.2918239531105306
2.1274632589573463 8.634396618849154 -0.2804578913554811
-0.9913862485247886 8.173679573772642 0.707604361988947
-0.9970484195711435 8.189311537706468 0.749140571518279
-0.9934791638039173 8.413653427849907 0.766888567226892
-0.9900352548163972 8.258112772462068 0.7729579451123337
-0.979441733084534 8.379390500739664 0.7910486096358613
-0.9437817960508789 8.508266942676226 0.748769662051069
-0.9492562229905804 8.633732354346993 0.8541141273563295
-0.8950538119779253 8.574855498133067 0.8070870612633918
0.7434547512869522 7.893138901439295 1.3998564937823281
0.7084174059916535 8.009539042971008 1.4468759321507145
0.7602633628281802 7.912088771899441 1.5084565814681905
0.7175749803342578 8.207483623834708 1.4866879967765447
0.7247223902831822 8.270810147761816 1.4961265039807796
0.7306310647599161 8.131050669363368 1.5144726265776562
0.7077722496800588 8.272176926286607 1.522673983035045
0.7295135162480868 8.167931702768826 1.4928336531958546
0.7118700000684496 8.475639369627727 1.5387419351262572
0.6969814100205122 8.436848649024716 1.5138653264110977
0.671252900111425 8.403997404621167 1.539816306029485
0.6986693287204745 8.510391032758358 1.601311858784217
0.6973964577111691 8.427585910901978 1.5328652515915828
0.7023832716683824 8.501262445846558 1.566582468938554
-0.90645857701134 8.256244546354033 3.0167662284540495
0.6584390094765661 8.362353349728537 -1.8885650154152949
0.680989152332678 8.343885980473585 -1.950046241495591
0.5880699810642308 8.438084320475685 -2.448199666965476
-1.9003447233569453 8.213033635294902 0.045764872356755894
-2.2991762981778643 8.41085533763986 -0.04411230305750977
-2.16313082630321 8.359270665501386 -0.015366284714377842
-2.1884150216532743 8.362256970361674 -0.08989931716277261
-2.8113771160014007 8.544289550378972 -0.06841851660574956
-3.022527382527638 8.58372437246192 -0.09569220077588925
-2.995020673809894 8.587377091316617 -0.13921494415278335
1.6628262231649564 7.900619958818475 1.7469671820740853
1.732725303381449 7.930441175545277 1.8182934822365575
2.0904958682886603 7.985304191790893 2.253333408996763
2.604251211870495 7.951193446820838 2.5814060585109773
2.7804572536809715 7.945942490835779 2.6939845848214734
2.8564446434553323 7.930940137685854 2.7262482850846435
2.8028547529006356 7.921051108843078 2.6956289274908767
2.9779089127640987 7.913324150524067 2.817920499256366
3.025466882008088 7.885476893548001 2.883534903470592
-0.6160558994893935 7.9405343869557345 -1.8301979831721262
-0.616757803556763 7.88280956202648 -1.848199167599216
-0.5822794247993852 7.990040507406158 -1.8449345202168899
-0.4668822758112344 8.376890850945601 -2.146313495317539
-0.4685462201640146 8.415553644286037 -2.187725722022658
-0.39726303030250665 8.493590801707752 -2.2898758729599047
-0.4348856766400993 8.612938295542277 -2.478452084324236
-0.4501165950998701 8.679389570719565 -2.7165565453115597
-0.4786305532429055 8.708515673424793 -2.8371746183753848
-0.49386247873319494 8.72093859946332 -2.9772633296483124
-0.5048863723889486 8.86467746115564 -3.6051973931542323
-0.4876833792184306 8.872261597266055 -3.7401352814900095
-0.487314913622038 8.882202211352617 -3.809627845352736
-0.9317995395159012 8.246623987412425 0.7522870646219841
-0.8029418047752039 8.7950130249479 1.019710168234684
-0.814200742929958 8.870693039539109 1.1055418158316872
-0.8244992546938865 8.888538295923704 1.0803853754801798
-0.733867364030861 9.269808946145933 1.4770393412896676
-0.6558587264096137 9.284410102880038 1.5717498526946252
-0.6447592201063035 9.360471242694238 1.6445442754629573
-0.5888974805172945 9.58297961708759 1.8179779226318418
-0.5480242011808419 9.588303687518566 1.8034102952920585
-0.5763102907659821 9.64014946203226 1.860077762396985
-0.4630664866899736 9.88604764400674 2.0516578426606022
-0.46875759876105827 10.00376589813373 2.0952170602270463
-0.4368904363623922 10.006746422626874 2.079525767821833
1.9733708057489445 8.243795512016806 -0.30061926143656015
2.060301513819961 8.30404992754505 -0.3018810647492457
2.2336343485867864 8.578091983485225 -0.14976356750351974
2.213310687085951 8.61413834654242 -0.19971489402797626
2.2646192128978577 8.73842517576807 -0.10839633490503245
2.2955566047139238 8.73597206781717 -0.07508712249210717
2.4262633697171325 9.013521480786107 0.05124372227462856
2.4459315050857184 9.010299725549627 0.07219846532211044
2.4800247066340355 9.079584884765234 0.1518992088904812
2.5974937623793743 9.183998543581986 0.2147899795142707
2.776775568948572 9.426644575315676 0.3353457620888841
2.979468260945618 9.662842773571215 0.48138195730397226
-1.4689090392288244 8.488836611112793 -1.2240048231124698
-1.502522388661001 8.576389403749518 -1.2289903528311141
-1.5092444416315738 8.525954022915833 -1.2630654594472348
-1.7909714052433128 9.003340283946287 -1.4000913400092465
-1.883407253107096 9.150565693419749 -1.4650262258379427
-1.8756540985327994 9.16999277536712 -1.486941298549201
-1.8908434169263146 9.133282724163589 -1.4803266461024445
-2.0294445252231923 9.255756968337595 -1.563048849530294
-2.1047491085722054 9.32304543878442 -1.6341529320413424
0.643485860864245 8.801124269345994 1.6059967509132345
0.4889122823327132 9.332565255315716 1.8126418703336422
0.5045233007338251 9.761587348169252 2.0096492175436085
0.5199557788040298 9.82222177009563 2.0554499523202634
-1.8916754659108963 8.972838741735501 0.5063324310840456
-1.9684629645759055 9.052098187303073 0.5329514955811272
-1.9606451898189976 9.058538862851766 0.551334643911735
-2.0688924414017333 9.264697481664466 0.5401642228992151
-2.081180600102801 9.236881916434873 0.5753712794451425
-2.217780895036334 9.378108900542804 0.675069039791336
-2.4739255845313037 9.580515491464366 0.9050113566808662
-2.534988770388478 9.586998613626937 0.9265554270582237
-2.5179998881385943 9.548320018829706 0.9439449032524991
-2.9527979862866727 9.789046199573265 1.204093776172392
-3.243411095495677 9.836584877313053 1.3018715885285794
-3.2989993894719722 9.819825142345271 1.2791700426820543
1.9166016108420187 8.537443103733358 1.6404298641768351
1.898042903780206 8.456106643110354 1.6042563837441846
1.9610961054538585 8.5951974968668 1.6923708500000445
1.9459719417876082 8.550039332700479 1.6580630992475305
2.000509689312494 8.67037414625592 1.701359990429842
1.9868585508110799 8.661745836440044 1.713906459749058
2.0115482212610423 8.675325257724241 1.7237005627304338
2.020620788977523 8.761100415944579 1.7622960478956249
2.1012764124589873 8.802188320398253 1.8110260631961095
2.186536469753899 8.92870627964835 1.8546545384447362
2.234663695742966 8.971051538124073 1.9137969763704776
2.375252006874277 9.104635568016757 2.0187561858984164
2.3552383735880538 9.095977677097189 2.0304993596724645
2.404183813774341 9.115482562817713 2.0320527405854114
2.432127059306579 9.128199446394596 2.1322015588027337
2.460558118289678 9.146343161430254 2.1684271016632377
2.4374195363983544 9.136427228295677 2.121599242237761
2.4744462228438917 9.121229347106874 2.2327601518336344
2.563437462125325 9.142956867346173 2.3914581559775314
2.5689186007906306 9.134857513859018 2.477404842057308
2.63532257343644 9.12441453115594 2.65017322677504
2.677040036135872 9.099154318788745 2.7728725889057078
2.744335221264807 9.10681419035226 2.7963639770650714
3.0318289974648582 9.037624176580126 3.04705387215999
-1.6862237370329325 8.57458792287756 -1.7370892760192418
-1.7376734656162085 8.770152284198778 -1.8180363603743763
-1.7934011090543749 8.853311329273607 -1.9181929647075548
-1.841426236887556 8.96131546189513 -1.966230974251909
-1.8849426315804474 9.046994414578354 -2.0154264301869786
-2.0917723837310174 9.319813694456267 -2.182993476634113
-2.15020743572383 9.37868608514008 -2.3072694141933536
-2.1345801979328316 9.349317513667604 -2.2986967932802878
-2.2892498786251356 9.48751573109272 -2.4130620711454216
-2.3286082426206427 9.562835466845698 -2.4723586454889532
-2.3265533044126223 9.551613943766135 -2.4780760848377454
-2.5248468706530045 9.75243451252407 -2.6818429585190597
-2.5886247466065226 9.817245607450687 -2.709929617764876
2.0842632919355424 8.7493439382854 -0.6143076487106862
2.08427278508055 8.738422355732837 -0.6089311312171614
2.087251680680666 8.829823864218474 -0.6359531366389575
2.1474429815455967 8.809814860786108 -0.6279200296154027
2.1608818864424637 8.955621459756784 -0.6526094464845044
2.3960977995395396 9.242049173705867 -0.816495007748268
2.825200388175603 9.732781462826443 -1.1211504618661454
2.88774614218159 9.763819118238747 -1.2075153386281612
2.9877399703676124 9.832598020961319 -1.2838509317929934
3.1614639387549186 9.916010714858094 -1.4167710673841856
3.284130047581461 10.008076584320705 -1.526645749962629
-0.5790931438724449 8.980097550656145 -1.5449504674436922
-0.5513692077320475 9.006102512289582 -1.5499532111814616
-0.5504860272840256 8.986251854774368 -1.5729522080571863
-0.549665794140541 9.077980597632175 -1.5972724156122096
-0.5165862129281327 9.28528571963077 -1.6446998314257033
-0.5347420429054119 9.24941474271456 -1.661471350697775
-0.570430296821371 9.322380846361305 -1.651924565470163
-0.5433867251860578 9.35217909829992 -1.6648479740587967
-0.5244592033825574 9.512639413792941 -1.721629818311979
-0.5042474322091054 9.594683734614813 -1.7571544452051424
-0.5330487467051748 9.576631081327271 -1.7542232064017653
-0.5318369563443962 9.70038455390022 -1.7710992241500843
-0.5319638102204814 9.869859084993065 -1.8861706056256506
-0.5403083576291656 9.90377337033218 -1.8853291365839147
-0.5477676183372311 9.944142048080659 -1.9298957568658794
0.8682642283668839 9.976460346831669 0.4194311062847803
-1.3031300416299225 9.29479050403732 1.1697788506995783
-1.2924298723548653 9.287713307376071 1.1698243431084099
-1.302280455087315 9.358898121999296 1.201601472061495
-1.334846478948562 9.37926794856505 1.1733563271904288
-1.4155809972592088 9.5564255753429 1.1284283043588004
-1.411909141617056 9.544966577914547 1.1923362167468738
-1.5164952962739877 9.726582508184869 1.1371489158964585
-1.5464954468902385 9.804209274274196 1.1221397576210987
-1.6441598375386766 9.902534959595615 1.1315243132649608
-1.6514082773715293 9.925363186627324 1.1477285495024079
0.8931927318305672 8.819333086477668 1.869419076160636
0.8782991313458118 8.842892696759737 1.9257129268986388
0.8469207347411288 8.749122846571037 1.8929911350097135
0.88616333769979 8.828449143517112 1.9749861978340928
0.9305278059310569 9.265799414668443 2.2045181396827953
0.9304363487578549 9.260063209169216 2.2189749302684407
0.8225915651905756 9.58908106180257 2.387107027366416
0.8217712373471012 9.630844023834337 2.416202329696937
0.8205929639463676 9.607769332168168 2.407401122051473
0.7904881830180054 9.751624697834677 2.5391916207781633
0.7425806090026933 10.015988721064131 2.731858929076486
0.7452083400411357 9.970050720680321 2.711327620270959
0.739112443149828 10.012833376068754 2.7303640920539904
1.6972301293003074 8.837332644882077 1.017868661840578
1.7190283585700277 8.837543367758373 1.0181263301009236
1.805584443892419 9.018421793015534 1.0164532938601338
